ply
format ascii 1.0
element vertex 1669
property float x
property float y
property float z
end_header
-8.500436 -1.439735 6.08717
-7.661674 -1.445026 5.195584
-8.882442 -1.42376 5.991158
-9.502743 -1.425082 5.971537
-9.460339 -1.391642 5.943182
-8.89874 -1.450987 5.777142
-9.055269 -1.312205 6.44175
-8.401344 -1.383287 5.908924
-9.603415 -1.359507 5.404317
-9.435232 -1.40907 5.374222
-9.522878 -1.354334 6.087458
-9.475851 -1.425804 5.968617
-9.275801 -1.439766 5.425312
-9.435062 -1.397569 6.066853
-9.052143 -1.407565 5.496161
-8.936605 -1.444756 5.278241
-8.861379 -1.4735 5.207043
-8.940585 -1.406965 5.636734
-9.03437 -1.378311 5.828588
-9.009398 -1.433599 5.904713
-8.737659 -1.427628 5.485117
-8.85412 -1.417338 5.716535
-8.735048 -1.475794 5.5464
-9.017203 -1.451784 6.092039
-8.894181 -1.351839 5.981814
-8.98856 -1.441014 6.195852
-8.632043 -1.40501 5.845261
-8.840235 -1.436087 6.224514
-8.779546 -1.426313 6.188206
-8.388495 -1.425577 5.87582
-8.354367 -1.438117 5.900255
-8.308661 -1.444513 5.804906
-9.397116 -1.308919 4.991918
-9.286163 -1.406251 5.192429
-9.396053 -1.393169 6.02865
-9.032691 -1.397691 6.255925
-8.62956 -1.262091 5.979959
-8.702472 -1.426637 6.170343
-8.91439 -1.396002 5.7557
-9.369492 -1.375328 5.461711
-8.203296 -1.459506 5.328709
-8.740748 -1.414593 4.196797
-8.213032 -1.395149 5.160724
-7.245579 -1.343239 4.356796
-8.019137 -1.446639 4.978776
-7.975901 -1.418836 4.988353
-7.550615 -1.4061 4.19148
-9.449006 -1.374881 5.855429
-7.481838 -1.518267 3.466223
-8.99055 -1.427182 6.075945
-8.950476 -1.429104 4.660056
-8.891912 -1.407207 6.136601
-8.269607 -1.387464 4.943144
-9.254639 -1.435917 5.355926
-9.203564 -1.423307 5.480175
-8.860677 -1.405997 4.868169
-9.054461 -1.404669 6.163169
-7.876321 -1.418086 4.769125
-9.236545 -1.468607 5.373384
-8.608762 -1.427465 5.539181
-8.178882 -1.427522 4.858663
-9.308784 -1.414916 5.394256
-9.303516 -1.362175 5.509458
-9.43464 -1.387643 5.866887
-9.226615 -1.440005 5.524302
-8.906036 -1.442067 4.930345
-9.049808 -1.306415 6.318395
-9.686263 -1.240315 6.021533
-9.449233 -1.390413 5.773565
-9.253524 -1.433598 5.51868
-8.832586 -1.429574 4.708107
-8.5583 -1.4315 5.69937
-8.898342 -1.412945 5.482276
-8.963102 -1.427799 5.63006
-8.703867 -1.444669 5.383016
-9.071416 -1.358441 6.305102
-7.820159 -1.419522 4.852418
-9.525288 -1.342336 6.091988
-9.466285 -1.305137 6.012398
-9.277274 -1.430078 5.432206
-9.432355 -1.353699 6.08147
-9.016593 -1.408007 5.916133
-8.755597 -1.431584 5.577282
-7.415127 -1.428039 3.757457
-9.000605 -1.407614 6.202846
-8.057647 -1.403144 3.985571
-9.378839 -1.381206 5.798813
-9.282115 -1.394863 5.684257
-9.261413 -1.37759 5.794573
-9.137999 -1.411893 5.605807
-8.852869 -1.431321 5.856338
-8.805183 -1.420754 5.910388
-8.691622 -1.440867 6.169673
-9.541117 -1.367937 5.885938
-9.278566 -1.45778 5.018074
-9.503661 -1.370763 6.038068
-9.313006 -1.441345 5.406258
-9.215074 -1.408113 5.462333
-9.412062 -1.300432 6.145895
-9.176785 -1.407379 6.053702
-8.422719 -1.425885 4.839992
-8.874134 -1.422893 5.775701
-8.237034 -1.48086 4.940761
-8.327936 -1.440755 5.0858
-7.641968 -1.43793 4.265507
-7.924324 -1.443171 4.904953
-8.8127 -1.500618 6.23981
-8.729501 -1.421632 6.145071
-8.733277 -1.429431 6.286443
-9.674208 -1.189749 6.065653
-8.876979 -1.141776 4.436795
-9.434436 -1.304086 6.067684
-8.876091 -1.49139 5.28872
-9.446524 -1.413036 5.550338
-9.093344 -1.415465 5.928244
-9.12027 -1.422514 5.989856
-8.803475 -1.415335 5.586114
-8.762609 -1.379228 5.704898
-8.643527 -1.343217 5.630217
-8.86423 -1.428346 5.993984
-8.954462 -1.392307 6.176614
-8.917101 -1.412317 6.140954
-7.646894 -1.375948 4.660912
-8.655579 -1.420641 6.080948
-8.254737 -1.465172 4.691855
-9.520702 -1.293572 5.986358
-9.277688 -1.452082 5.321017
-9.188969 -1.456771 5.095396
-9.159228 -1.375605 5.203877
-9.064543 -1.426063 5.065702
-9.120134 -1.402548 5.280971
-9.370961 -1.367928 5.968825
-9.162539 -1.437094 5.439133
-8.589366 -1.494741 3.954121
-8.661017 -1.468094 4.347822
-9.273153 -1.417444 5.955711
-8.857193 -1.489807 5.19474
-9.134952 -1.417159 5.930426
-9.169431 -1.40077 6.080821
-8.890534 -1.438301 5.763016
-8.419785 -1.369965 5.067019
-8.164901 -1.429035 4.794445
-8.670252 -1.40576 5.634811
-7.735364 -1.434809 4.505143
-7.93944 -1.43977 4.8383
-8.448288 -1.484206 3.954502
-8.228725 -1.35919 4.305041
-8.812494 -1.437264 5.950841
-9.0507 -1.534015 4.630345
-8.929026 -1.444934 4.730933
-9.120708 -1.461859 5.275321
-9.203246 -1.410657 5.527349
-9.316544 -1.39713 5.997832
-8.823863 -1.410052 5.027756
-8.643991 -1.43833 4.888579
-8.883052 -1.422891 5.433487
-8.931845 -1.427366 5.624201
-8.846778 -1.429306 5.571256
-9.08762 -1.41846 6.070508
-9.076735 -1.412803 6.138146
-8.57998 -1.437631 5.339335
-7.663041 -1.419912 4.034045
-8.717051 -1.4488 5.688706
-8.883714 -1.442371 5.942776
-8.192385 -1.407066 5.058552
-8.112646 -1.418813 5.21974
-7.283306 -1.318051 4.232689
-8.788504 -1.404804 6.166796
-8.705263 -1.434674 6.152913
-8.262284 -1.451437 5.77334
-8.719412 -1.420426 6.26974
-8.878317 -1.439468 4.523784
-9.152335 -1.443686 5.4721
-9.177752 -1.420428 5.77729
-8.851971 -1.423558 5.076841
-8.876462 -1.424859 5.353321
-9.049855 -1.416264 5.707307
-8.418745 -1.443942 4.615149
-8.686937 -1.40805 5.402636
-8.753137 -1.443756 5.521945
-8.170717 -1.436885 4.598946
-8.119911 -1.425659 4.669258
-8.617397 -1.44244 5.617881
-8.86245 -1.416188 6.026959
-8.825136 -1.435203 5.989991
-8.328985 -1.457058 5.344443
-7.424487 -1.343624 4.119066
-7.868607 -1.461304 4.828017
-8.691915 -1.427549 5.976959
-8.680017 -1.418119 6.17279
-8.607967 -1.476805 6.179588
-8.325904 -1.306028 3.968931
-9.020778 -1.397661 5.378577
-8.960351 -1.417375 5.255469
-8.694848 -1.445315 4.923057
-8.625947 -1.387017 4.960012
-9.157796 -1.402792 5.909012
-8.917655 -1.389242 5.599464
-8.53146 -1.421914 4.958652
-9.035054 -1.35813 5.832898
-8.952012 -1.440258 5.717883
-8.596609 -1.390043 5.147628
-8.495793 -1.420151 5.032582
-8.588305 -1.441975 5.295927
-8.799693 -1.411901 5.61965
-8.30325 -1.431866 4.954831
-8.614623 -1.399508 5.469146
-7.805099 -1.348522 4.364343
-8.796421 -1.443559 5.777771
-8.442355 -1.430464 5.309178
-8.875798 -1.439401 5.908364
-8.709088 -1.424259 5.738578
-8.157866 -1.446385 5.054945
-7.514738 -1.493266 4.236221
-8.004238 -1.435688 4.943047
-8.803676 -1.431742 6.208496
-8.506731 -1.437826 5.938668
-8.218967 -1.43553 5.677974
-8.76298 -1.439089 6.250691
-7.206716 -1.41312 4.663889
-7.353137 -1.541437 4.885703
-7.647944 -1.454438 5.182977
-8.365023 -1.417353 5.909018
-7.505182 -1.504034 5.10034
-7.965594 -1.42045 5.523254
-8.271995 -1.428622 5.844539
-8.030557 -1.467211 5.656077
-7.825508 -1.451179 5.478259
-7.164876 -1.296258 4.818678
-8.606257 -1.434282 6.229981
-7.08881 -1.28417 4.756022
-7.949759 -1.441 5.618882
-8.569857 -1.448337 6.216329
-7.407806 -1.465524 5.202532
-8.0831 -1.451548 5.837704
-8.254027 -1.455677 5.992277
-8.619681 -1.437354 6.312529
-7.385048 -1.436226 5.221934
-7.535501 -1.457849 5.379533
-8.532684 -1.435933 6.25363
-8.657976 -1.427001 6.371864
-8.073446 -1.473904 5.876985
-7.263189 -1.293276 5.104654
-8.265287 -1.435908 6.043732
-8.574102 -1.440968 6.317365
-7.931349 -1.476022 5.779094
-8.554469 -1.432926 6.308554
-8.187955 -1.438919 5.38192
-9.084627 -1.409799 5.221051
-9.333538 -1.328053 5.881819
-8.330592 -1.350548 4.027837
-8.549853 -1.376209 4.757229
-8.322355 -1.329443 4.756282
-8.045747 -1.432736 4.611338
-8.659655 -1.439384 5.550605
-8.56337 -1.499143 5.452632
-8.280223 -1.417346 5.474315
-8.741488 -1.436826 6.206693
-7.090383 -1.219401 4.648743
-7.766699 -1.494577 5.407924
-8.749238 -1.433704 5.551259
-8.933622 -1.441863 5.246795
-9.104649 -1.412744 5.646224
-8.820235 -1.396395 5.180413
-8.509773 -1.431009 4.848099
-9.134683 -1.361607 5.92536
-8.500867 -1.477128 5.297761
-8.530435 -1.438968 5.3848
-8.730955 -1.425375 5.752375
-8.971543 -1.416682 6.089243
-8.614257 -1.377848 5.652139
-8.703185 -1.415989 5.786859
-7.84957 -1.392358 4.754103
-8.206517 -1.453732 5.395193
-8.59568 -1.424203 6.056204
-8.398085 -1.370643 5.873543
-7.706948 -1.481897 5.372008
-8.565044 -1.447887 6.173029
-7.116692 -1.352992 4.981625
-8.334965 -1.464539 6.105178
-7.500545 -1.464678 5.427194
-8.247879 -1.433383 6.062101
-7.045242 -1.295469 5.062199
-8.421756 -1.439954 6.238802
-8.560473 -1.439928 6.357331
-7.620783 -1.454563 5.626215
-8.05529 -1.488892 6.000748
-7.679484 -1.491599 5.747854
-7.981385 -1.422315 4.936704
-8.398296 -1.409626 5.879671
-8.497599 -1.347938 4.505369
-8.234249 -1.376714 4.484182
-8.237495 -1.424748 5.032604
-8.086517 -1.489027 5.292781
-7.46279 -1.517713 4.857754
-8.612416 -1.434146 6.094642
-8.110861 -1.44577 5.879351
-8.625344 -1.424533 6.352562
-8.711642 -1.436553 6.454239
-8.107919 -1.452153 5.978825
-8.233079 -1.322828 3.97113
-8.792864 -1.432968 5.108609
-7.909167 -1.307298 3.587569
-8.156207 -1.363877 4.047551
-8.642245 -1.430265 4.990979
-8.614844 -1.448146 4.991941
-8.239685 -1.445925 4.422686
-8.560898 -1.359408 4.969536
-7.995431 -1.275236 4.154441
-9.01892 -1.438332 5.724782
-8.939902 -1.382078 5.648655
-7.784087 -1.365773 4.070928
-8.430996 -1.392131 5.050045
-7.54529 -1.341235 3.822181
-8.67513 -1.428481 5.435363
-8.021607 -1.373427 4.604901
-8.330877 -1.407122 5.164577
-8.524847 -1.455577 5.405751
-8.655759 -1.42494 5.791126
-8.343387 -1.430942 5.450966
-8.641069 -1.423395 5.847581
-7.672668 -1.470492 4.868675
-8.153377 -1.410294 5.688627
-8.277432 -1.451069 5.822333
-8.196918 -1.424623 5.787007
-7.804508 -1.432399 5.50176
-7.873826 -1.443686 5.691137
-8.69541 -1.431046 6.368216
-8.637024 -1.40036 6.358809
-8.691828 -1.434553 6.420055
-8.583061 -1.438222 6.377763
-7.515107 -1.472297 5.609384
-7.23645 -1.483174 5.424972
-8.26174 -1.413879 6.177318
-7.137368 -1.394637 5.396278
-7.619145 -1.521001 5.793245
-8.26133 -1.459036 6.218559
-7.681586 -1.495536 5.847236
-7.422428 -1.453764 5.666768
-7.844141 -1.472749 5.972925
-7.279546 -1.442388 5.583955
-8.430568 -1.448844 5.894899
-8.074791 -1.428745 4.458002
-8.095714 -1.450567 5.60721
-7.900353 -1.430918 4.877495
-7.748736 -1.341404 3.852098
-8.133953 -1.464129 5.643175
-8.142058 -1.412044 4.869071
-9.176152 -1.38397 5.679287
-7.776917 -1.350669 3.531618
-8.806656 -1.386616 5.802192
-8.906582 -1.468829 6.257708
-8.112086 -1.390132 5.806157
-7.429289 -1.48605 5.503369
-7.781423 -1.48414 5.784071
-7.696074 -1.466358 5.74003
-8.580619 -1.414872 4.587132
-8.974639 -1.461324 5.324044
-8.878898 -1.43101 5.241491
-8.517054 -1.383614 4.759493
-8.723418 -1.442244 5.247994
-8.752404 -1.430442 5.298635
-8.509777 -1.417017 5.003291
-8.794909 -1.408251 5.560555
-9.083284 -1.417349 5.980793
-8.92968 -1.434495 5.821268
-8.988249 -1.448543 6.013766
-8.447895 -1.421047 5.346931
-8.253467 -1.436627 5.334356
-8.420514 -1.479155 5.548106
-8.679195 -1.477625 5.871367
-8.790024 -1.457371 5.993616
-8.870427 -1.456942 6.104277
-8.929201 -1.365871 6.207066
-7.738127 -1.406031 5.063725
-8.130021 -1.36492 5.468117
-8.377888 -1.536727 5.984979
-7.973889 -1.375001 5.755148
-8.638825 -1.442766 6.348239
-7.861366 -1.441351 5.898664
-7.589532 -1.424412 5.788339
-8.476379 -1.378621 6.407557
-8.533841 -1.44528 6.471907
-7.893544 -1.436302 6.057827
-8.877513 -1.450643 5.986347
-7.907781 -1.414446 5.124352
-8.566906 -1.423163 5.220247
-9.040288 -1.465294 5.567591
-9.072575 -1.361509 5.969959
-8.29993 -1.389128 5.703864
-8.13941 -1.445082 5.800141
-7.92621 -1.370233 6.029324
-8.488795 -1.461712 6.225604
-8.680761 -1.401031 5.364613
-9.02914 -1.383974 5.957197
-8.975952 -1.418955 5.961452
-8.957019 -1.420655 5.953889
-8.708518 -1.400993 5.673798
-8.549541 -1.408201 5.533356
-8.43477 -1.469988 5.436077
-8.638315 -1.403052 5.975761
-8.792761 -1.428018 6.184185
-8.736299 -1.390152 6.149221
-8.854041 -1.381986 6.288037
-8.513088 -1.411336 6.09901
-8.520691 -1.417455 6.164631
-8.487603 -1.423894 6.187275
-8.329692 -1.447482 6.136193
-8.600214 -1.402285 6.348232
-8.622605 -1.395988 6.36903
-8.569324 -1.406231 6.378039
-8.058923 -1.427024 6.038514
-8.020503 -1.475541 6.186571
-8.102785 -1.408509 6.220771
-7.991976 -1.451053 6.175937
-8.884111 -1.456065 5.302073
-9.11991 -1.370496 5.91851
-8.704825 -1.384527 5.374241
-8.763057 -1.397757 5.460925
-8.726103 -1.393195 5.83014
-8.264581 -1.437706 5.463423
-8.661841 -1.361871 6.253169
-8.231939 -1.508305 5.974811
-8.02206 -1.408021 6.182651
-7.693347 -1.423462 5.998988
-7.490262 -1.409374 5.954264
-7.337595 -1.422516 5.887087
-7.93617 -1.399953 6.270932
-7.767313 -1.440001 6.204135
-6.520308 -1.380563 5.650757
-6.830252 -1.454808 5.822059
-8.179262 -1.391551 6.473567
-7.611722 -1.425701 6.066333
-7.69547 -1.378579 6.437905
-6.81479 -1.426865 6.012672
-6.167253 -1.181137 5.877311
-7.308953 -1.444917 6.420486
-7.727738 -1.429932 5.910076
-7.663965 -1.438122 6.050128
-6.488937 -1.37388 5.604746
-7.964378 -1.352951 6.413918
-8.185837 -1.394981 6.241691
-7.069853 -1.424017 6.4791
-7.228741 -1.405402 6.516848
-7.201538 -1.431935 6.557215
-7.310162 -1.375046 6.552379
-7.727962 -1.436255 5.831394
-8.283359 -1.388724 6.102962
-7.20454 -1.439185 6.395328
-6.660017 -1.416322 6.407569
-7.070902 -1.429347 6.564706
-7.485814 -1.338855 6.610477
-8.311911 -1.164709 6.661331
-7.777619 -1.429974 6.698746
-7.086552 -1.427813 6.629649
-6.8457 -1.398517 6.609683
-8.091026 -1.280293 6.705856
-6.688967 -1.428473 6.629663
-7.605581 -1.413619 5.792809
-7.735471 -1.417505 5.885871
-6.862771 -1.424133 6.431222
-7.402976 -1.462757 6.560533
-6.856549 -1.417284 6.708161
-6.575504 -1.414047 6.779497
-7.619858 -1.374995 6.793634
-7.835606 -1.391353 6.748952
-7.554998 -1.396217 6.749623
-6.409251 -1.316954 5.639826
-7.573261 -1.416735 5.851891
-8.316902 -1.369496 6.162014
-7.628875 -1.41944 6.022021
-7.775472 -1.409806 6.274105
-8.317554 -1.345326 6.512494
-7.940969 -1.370829 6.507581
-8.038055 -1.37279 6.539758
-7.032688 -1.42221 6.730408
-6.848789 -1.385244 6.946329
-6.99888 -1.312578 6.921731
-8.025255 -1.324174 6.86656
-7.060446 -1.432024 6.123912
-6.950585 -1.440754 6.806761
-8.250269 -1.160395 6.739444
-6.637325 -1.410221 5.578001
-7.657925 -1.422849 6.05981
-7.343451 -1.418231 6.132687
-7.425442 -1.425649 6.172656
-8.116817 -1.389227 6.305216
-7.361888 -1.415818 6.580657
-7.764723 -1.397619 6.599218
-6.960757 -1.383991 6.844623
-8.090148 -1.395329 5.948983
-8.341119 -1.361706 6.024516
-7.477837 -1.426672 5.976454
-7.599516 -1.431449 6.108461
-7.817899 -1.420487 6.211459
-7.967677 -1.406278 6.397429
-7.924907 -1.416774 6.538834
-7.824764 -1.404635 6.649195
-7.520962 -1.403231 6.765087
-7.963705 -1.433396 5.872546
-7.881378 -1.430329 5.932159
-7.916257 -1.525504 6.049298
-7.748653 -1.416959 6.125885
-7.237383 -1.405315 6.084042
-5.84579 -1.386869 6.060657
-8.228719 -1.498008 6.314166
-8.269153 -1.369113 6.438474
-7.867429 -1.390005 6.562833
-8.060977 -1.392624 6.568618
-8.262689 -1.31884 6.588578
-7.604125 -1.395091 6.681829
-6.806498 -1.40713 6.851071
-7.246678 -1.390839 6.057852
-7.058841 -1.4266 5.85414
-6.610644 -1.449381 5.823251
-7.28652 -1.46305 5.749115
-7.796214 -1.362062 5.925671
-7.236613 -1.434023 6.195067
-7.882519 -1.399015 6.405991
-7.22573 -1.338743 6.526327
-6.719133 -1.37672 6.875233
-7.731534 -1.306465 6.689026
-7.858229 -1.387596 6.73149
-7.929446 -1.358586 6.81582
-7.367158 -1.460809 6.17155
-7.49219 -1.39199 5.81089
-6.501446 -1.388504 6.308147
-8.216492 -1.376117 6.496977
-8.120973 -1.287341 6.704764
-7.897515 -1.420995 5.994189
-7.190672 -1.417289 5.930478
-7.907773 -1.418234 6.050911
-8.276516 -1.39699 6.164279
-8.288316 -1.385761 6.227299
-7.093852 -1.431568 6.141408
-7.982474 -1.414649 6.22956
-7.479012 -1.429512 6.251862
-7.376204 -1.411816 6.480872
-8.205956 -1.375186 6.503323
-8.251344 -1.30754 6.600321
-7.151014 -1.413275 6.888485
-7.951645 -1.363313 6.788323
-7.658422 -1.450581 6.405824
-8.220153 -1.385241 5.934422
-8.253445 -1.393129 5.952768
-8.01306 -1.429964 5.889935
-8.205913 -1.376892 5.958941
-6.188346 -1.257259 5.679629
-6.91515 -1.421511 5.794489
-7.164519 -1.424648 5.857319
-7.881669 -1.4063 6.025707
-7.711546 -1.390378 6.118364
-7.806461 -1.37655 6.366964
-7.999017 -1.397004 6.371219
-8.207705 -1.374571 6.397321
-8.118065 -1.378009 6.442496
-6.649404 -1.435691 6.496191
-6.709853 -1.408063 6.547509
-6.7686 -1.434281 6.651956
-7.220722 -1.410698 6.708101
-7.810446 -1.388132 6.746927
-6.671753 -1.23433 5.572793
-7.164373 -1.434216 6.259309
-7.914516 -1.381265 6.554107
-6.498252 -1.251631 5.643707
-8.111096 -1.413199 6.021366
-7.42959 -1.424659 6.147486
-6.127356 -1.392992 6.090641
-7.887286 -1.411203 5.911677
-8.28381 -1.375025 6.056744
-7.848582 -1.420216 6.025741
-7.205999 -1.417078 5.968489
-7.918701 -1.403694 5.885292
-8.280785 -1.36946 6.266103
-7.475425 -1.433938 6.34276
-6.876859 -1.408379 6.339599
-6.720499 -1.42272 6.397517
-8.157918 -1.386399 6.439179
-8.160394 -1.348694 6.466313
-7.538061 -1.437493 6.493849
-8.035612 -1.380415 6.50557
-8.284207 -1.294294 6.335827
-7.132439 -1.335056 6.547212
-7.646903 -1.402939 6.570813
-7.891777 -1.39803 6.60981
-6.665206 -1.409191 6.735609
-7.083585 -1.341033 6.834941
-7.422831 -1.427587 6.485825
-7.594103 -1.410037 6.852242
-8.111369 -1.305262 6.739251
-8.069821 -1.395677 6.789637
-8.189479 -1.149076 6.689999
-7.158982 -1.362892 6.969584
-7.874152 -1.416143 6.864428
-7.822865 -1.411652 6.121459
-8.133289 -1.401941 6.415441
-6.505356 -1.26713 5.437615
-6.792113 -1.14126 5.572673
-7.385439 -1.434726 5.669285
-7.765459 -1.41128 5.788935
-8.183054 -1.406112 5.925204
-7.878659 -1.411533 5.86798
-6.898894 -1.431469 5.680757
-7.62597 -1.364795 5.933521
-7.853462 -1.40484 5.979369
-7.026424 -1.441483 5.808375
-7.812221 -1.429382 6.014723
-8.049575 -1.401191 6.088001
-7.063533 -1.394625 5.962263
-6.880573 -1.413974 5.968043
-7.829679 -1.42664 6.175367
-7.70261 -1.442147 6.193644
-7.556781 -1.42739 6.188082
-7.421015 -1.465372 6.19728
-8.205268 -1.405002 6.284212
-7.429555 -1.31216 6.276005
-8.052876 -1.391762 6.368617
-7.967203 -1.399026 6.368053
-6.674753 -1.454345 6.462008
-8.171683 -1.383307 6.490702
-8.19968 -1.33752 6.489347
-8.253979 -1.292243 6.531525
-7.390134 -1.41137 6.614438
-6.668227 -1.43404 6.666188
-6.877625 -1.397552 6.65411
-6.379371 -1.278178 6.6712
-7.96038 -1.42167 6.599668
-7.730347 -1.406328 6.628172
-6.536542 -1.397582 6.78924
-7.347474 -1.397676 6.740559
-8.103758 -1.301341 6.654188
-7.897191 -1.362422 6.768763
-7.559337 -1.431703 6.341637
-6.656826 -1.040015 5.64794
-8.077787 -1.445101 6.267251
-7.577843 -1.46733 5.654548
-7.858918 -1.360425 5.815266
-6.552373 -1.314044 5.421234
-7.474463 -1.418995 5.687916
-8.270394 -1.35333 6.015967
-7.355556 -1.430403 5.860615
-8.080118 -1.374178 6.050572
-6.189724 -1.522479 5.705252
-5.978187 -1.329582 5.713914
-7.380793 -1.47134 6.049708
-8.020823 -1.418896 6.247918
-7.424738 -1.465983 6.229806
-7.631162 -1.390543 6.259515
-7.642463 -1.438459 6.280298
-6.799446 -1.401079 6.311474
-6.811631 -1.505039 6.319213
-8.159643 -1.390097 6.387156
-8.063787 -1.398162 6.410599
-8.174671 -1.317778 6.486609
-7.269903 -1.422529 6.526193
-7.769577 -1.394364 6.537117
-7.183923 -1.426367 6.580295
-7.848322 -1.414462 6.587286
-8.03874 -1.376565 6.577181
-7.10005 -1.396397 6.685992
-7.154193 -1.43439 6.691934
-7.070486 -1.420317 6.822975
-7.388429 -1.422583 6.847095
-7.93934 -1.406426 6.053634
-7.511803 -1.355528 5.683957
-7.244334 -1.406577 5.628479
-7.558528 -1.394896 5.726697
-7.534623 -1.448604 5.777598
-6.395223 -1.443645 5.754373
-7.873177 -1.394724 6.332353
-7.266477 -1.414453 6.341095
-6.448379 -1.451998 6.404307
-6.915548 -1.428342 5.34008
-7.583466 -1.417358 5.6406
-8.157942 -1.39214 5.85415
-6.643774 -1.458815 5.292324
-7.561935 -1.417798 5.653078
-7.522551 -1.422693 5.793402
-8.121088 -1.383537 5.989913
-8.079305 -1.391204 6.003234
-7.798995 -1.416686 5.954717
-7.722431 -1.465924 5.946466
-7.515285 -1.412216 5.956894
-6.031509 -1.450491 5.657773
-5.890825 -1.315516 5.674394
-7.752954 -1.389297 6.057406
-8.073167 -1.390252 6.167029
-7.373742 -1.437047 6.043303
-7.397529 -1.420767 6.145348
-7.80301 -1.375459 6.210098
-7.35977 -1.436457 6.298986
-7.695584 -1.399622 6.371693
-7.434741 -1.415051 6.412793
-7.648796 -1.398275 6.423055
-7.278774 -1.413423 6.470848
-6.342433 -1.441582 6.485347
-7.904833 -1.41389 6.53954
-7.227481 -1.437536 6.607596
-7.992815 -1.367927 6.608189
-7.068501 -1.45446 6.674051
-7.32674 -1.405971 6.690021
-7.898057 -1.380283 6.661061
-6.857893 -1.306136 6.733695
-7.313904 -1.407497 6.735802
-7.209972 -1.377227 6.750218
-8.031881 -1.262417 6.659976
-6.552736 -1.491467 6.881818
-7.411675 -1.394149 6.811616
-7.018797 -1.433732 6.536022
-7.426013 -1.425197 6.202662
-7.695455 -1.441324 5.864292
-6.394467 -1.433236 5.57619
-7.274516 -1.405727 5.537053
-7.292747 -1.428403 5.649851
-8.237208 -1.289054 6.022389
-8.095268 -1.403801 6.182321
-7.428071 -1.587156 6.122454
-7.449775 -1.419764 6.519884
-5.325454 -1.318279 6.763779
-6.682445 -1.412425 5.126105
-7.83542 -1.433227 5.635038
-6.57104 -1.393716 5.133545
-6.560382 -1.437261 5.130996
-7.013715 -1.442525 5.320583
-6.77772 -1.450294 5.239383
-7.573052 -1.411203 5.606071
-7.308557 -1.428508 5.592502
-6.835385 -1.421714 5.573581
-6.392772 -1.488757 5.517996
-7.606843 -1.401469 5.897793
-7.832871 -1.397791 6.052457
-8.096728 -1.375932 6.154524
-6.714872 -1.190471 5.906878
-7.512317 -1.422452 6.083217
-8.031768 -1.422026 6.197273
-7.02797 -1.439078 6.00668
-5.652098 -1.512374 5.903337
-5.530975 -1.478579 5.914535
-7.524112 -1.413186 6.358384
-6.257791 -1.36752 6.346752
-7.426808 -1.41344 6.510908
-6.705482 -1.428273 6.526295
-7.396784 -1.423071 6.538511
-8.02572 -1.357181 6.534059
-7.578413 -1.407988 6.543641
-7.306963 -1.429517 6.636796
-7.573771 -1.413388 6.635896
-6.794212 -1.38636 6.679687
-7.578443 -1.412388 6.780757
-7.906141 -1.400204 5.711605
-7.295184 -1.459774 5.449902
-6.689166 -1.45089 5.212114
-6.464144 -1.424244 5.447966
-7.160019 -1.4201 5.803924
-6.701765 -1.369682 6.746123
-7.517609 -1.429188 6.726111
-6.755937 -1.42109 5.121408
-6.824573 -1.42195 5.170178
-7.062997 -1.429682 5.278829
-6.815082 -1.45212 5.19086
-6.587073 -1.438953 5.104095
-8.079765 -1.341112 5.81563
-6.601511 -1.444829 5.271851
-5.995892 -1.451676 5.156818
-7.930999 -1.413028 5.946904
-7.153038 -1.399949 5.709455
-7.464313 -1.421158 5.817891
-7.483631 -1.416959 5.952681
-7.449699 -1.424065 5.946395
-6.056202 -1.474643 5.713578
-6.708548 -1.458499 5.968192
-6.487496 -1.415588 5.991985
-7.343401 -1.387511 6.155577
-7.835776 -1.42157 6.252073
-8.026967 -1.367105 6.387863
-7.537369 -1.40024 6.381185
-7.848049 -1.380359 6.436561
-7.462969 -1.41905 6.419571
-7.11124 -1.413062 6.432045
-7.345652 -1.382809 6.449114
-6.097418 -1.507839 6.504592
-7.520449 -1.398901 6.70212
-7.768786 -1.400215 6.701947
-6.198419 -1.379508 4.89225
-7.620367 -1.457239 5.907764
-6.649525 -1.407785 6.595378
-7.272152 -1.389184 6.743998
-6.911016 -1.405974 5.202137
-7.610767 -1.423533 5.569679
-8.164489 -1.286624 5.911223
-7.339777 -1.391729 5.719138
-7.60629 -1.403728 5.823728
-5.536964 -1.326099 5.134435
-7.782609 -1.397503 5.935278
-5.699753 -1.39618 5.47596
-6.826395 -1.42853 5.84825
-8.004416 -1.40581 6.188434
-7.572546 -1.404252 6.343986
-6.795216 -1.439114 6.344124
-6.744693 -1.472661 6.400881
-6.896086 -1.448143 6.754982
-7.925737 -1.352038 6.668111
-7.134266 -1.433684 6.722187
-6.267371 -1.469258 4.787732
-7.218431 -1.373493 5.321926
-6.118124 -1.340594 4.879622
-7.27789 -1.428122 5.472383
-7.961864 -1.351409 5.86709
-6.652038 -1.3746 5.330087
-6.896894 -1.414355 5.447403
-6.183827 -1.392444 5.162994
-5.991028 -1.432868 5.246559
-7.735204 -1.405594 5.940428
-6.761399 -1.43171 5.636066
-7.972275 -1.382274 6.054557
-7.112282 -1.409347 5.780182
-8.009183 -1.377006 6.112193
-7.801701 -1.406406 6.058817
-7.572476 -1.38588 6.012514
-6.461781 -1.416369 5.793386
-7.079603 -1.425015 5.954526
-7.600298 -1.390427 6.166813
-7.789249 -1.398491 6.208755
-7.159393 -1.404921 6.102894
-7.56321 -1.418176 6.187881
-6.878145 -1.405106 6.057119
-7.455431 -1.421245 6.200448
-7.258008 -1.437268 6.268598
-7.566279 -1.395459 6.485499
-7.64788 -1.358375 6.526942
-7.899021 -1.379661 6.604596
-7.090565 -1.436144 6.666154
-7.286315 -1.428215 6.716311
-7.542099 -1.358398 5.567472
-6.436668 -1.369829 5.218838
-7.358664 -1.443398 5.61391
-7.172591 -1.398072 5.625446
-8.070657 -1.338057 5.997726
-6.031725 -1.437042 5.527323
-6.480425 -1.400556 6.308475
-8.145709 -1.239365 5.915242
-7.779952 -1.35903 5.787937
-7.915657 -1.283997 5.869657
-7.956367 -1.339339 5.895045
-7.589705 -1.331863 5.754742
-7.853215 -1.398427 5.903532
-7.494588 -1.381152 5.815031
-6.962743 -1.441059 5.689978
-7.747202 -1.375936 5.962193
-7.222913 -1.390948 5.925416
-7.343835 -1.394743 6.063748
-7.611503 -1.482963 6.700339
-6.452045 -1.425358 5.628119
-6.88353 -1.416704 5.839843
-7.619161 -1.411749 6.07017
-7.737931 -1.404663 5.916428
-7.781365 -1.378543 6.271888
-6.657773 -1.398298 5.589455
-7.661458 -1.415512 6.060431
-7.609107 -1.412232 6.109419
-7.914489 -1.369478 6.056168
-5.846863 -1.441479 5.585388
-5.853417 -1.450078 5.348831
-6.374255 -1.409554 5.757547
-6.779181 -1.419143 6.313398
-6.918661 -1.42593 5.353012
-6.72083 -1.406526 5.339386
-7.565851 -1.411045 5.657602
-7.380497 -1.411618 6.298316
-7.713607 -1.403051 5.879966
-7.051955 -1.408289 5.350194
-7.321805 -1.412919 5.603189
-6.868642 -1.396114 5.592212
-6.756557 -1.403408 5.255779
-6.781804 -1.405557 5.138319
-7.095824 -1.397586 5.301208
-7.524564 -1.420971 6.382338
-7.869657 -1.281113 6.419191
-7.715423 -1.396009 5.904222
-6.067374 -1.376493 4.844138
-7.289474 -1.415152 5.480826
-7.966989 -1.399971 6.051679
-7.595444 -1.401952 6.166809
-6.863236 -1.419288 6.050906
-7.462731 -1.407627 6.200462
-7.288172 -1.400461 6.269999
-6.528185 -1.412946 5.216218
-7.522125 -1.41064 5.868359
-7.43234 -1.402059 6.062179
-7.660199 -1.329799 6.479654
-7.338876 -1.401583 6.056863
-7.236497 -1.256924 5.529046
-7.322711 -1.446074 5.672629
-7.105593 -1.498898 5.835086
-7.341442 -1.422134 5.938127
-7.728303 -1.405493 6.121219
-7.418192 -1.415097 6.09311
-7.542749 -1.408791 6.229805
-7.846212 -1.407215 6.288689
-7.696807 -1.37883 6.368165
-6.353555 -1.403924 4.905439
-7.484574 -1.414529 5.781689
-7.623982 -1.394231 6.258936
-6.721884 -1.408607 6.19648
-7.579729 -1.392419 6.339361
-7.547314 -1.410922 5.792636
-7.494417 -1.403711 5.548417
-7.480993 -1.415873 5.689242
-7.679718 -1.404931 6.093468
-7.213689 -1.408737 5.970016
-7.518565 -1.42432 6.12423
-7.469699 -1.403945 6.25898
-6.77172 -1.402962 6.156898
-7.318538 -1.41938 6.456473
-7.162691 -1.412522 5.620006
-7.144551 -1.406798 5.714142
-7.677299 -1.417223 5.646311
-7.605553 -1.403484 5.687224
-5.960156 -1.425274 4.966484
-7.633014 -1.408062 5.886044
-7.627779 -1.408372 5.906475
-7.412247 -1.444341 5.960671
-7.221768 -1.416254 6.051751
-7.681849 -1.428133 6.195628
-6.645709 -1.405428 6.24506
-6.709451 -1.39645 5.150423
-7.249679 -1.423885 5.6585
-7.773267 -1.414931 5.949479
-7.492811 -1.407045 6.339931
-7.337668 -1.410797 6.417902
-5.60491 -1.349352 4.879487
-7.238561 -1.420807 5.746982
-6.284065 -1.400337 5.033856
-7.215967 -1.414279 5.527519
-6.61353 -1.396469 5.245689
-7.743951 -1.394671 5.891565
-7.456468 -1.408369 5.817925
-7.788736 -1.412581 6.116163
-7.750081 -1.408127 6.126984
-7.441581 -1.396498 6.201761
-7.549228 -1.40139 6.321189
-7.430839 -1.422527 6.413834
-6.858885 -1.386759 6.340039
-7.379758 -1.395331 6.420886
-7.651822 -1.385793 6.45154
-7.819784 -1.303271 6.456736
-7.944934 -1.398818 5.872239
-5.902894 -1.33257 4.914939
-6.098166 -1.398399 5.20842
-7.822546 -1.414499 5.978937
-6.257221 -1.465476 5.341724
-7.451163 -1.417995 5.837336
-7.456223 -1.416152 5.947261
-7.250907 -1.416696 6.019402
-6.251723 -1.40605 5.736001
-5.798911 -1.401851 5.717679
-7.569251 -1.408717 6.188589
-7.140291 -1.381388 6.146415
-7.507811 -1.417217 6.233843
-7.795368 -1.37495 6.322835
-7.499003 -1.409894 6.382674
-6.923831 -1.405355 6.357253
-7.321846 -1.396066 6.423038
-7.315348 -1.428595 6.374621
-6.183238 -1.398333 4.893335
-7.668653 -1.401081 5.698781
-6.659262 -1.413336 5.187564
-6.183441 -1.32662 5.131626
-7.88883 -1.49816 6.007387
-7.699916 -1.419286 6.000095
-7.617428 -1.400617 6.11671
-7.93426 -1.38347 6.272518
-6.495402 -1.369934 5.929202
-6.577839 -1.391086 4.649277
-7.014761 -1.464442 4.936877
-6.921542 -1.409431 4.91049
-6.214459 -1.411821 4.427166
-6.959586 -1.392957 4.981421
-6.750128 -1.408916 4.844132
-7.814487 -1.405502 5.598475
-7.833673 -1.447744 5.629688
-6.146232 -1.357401 4.528016
-6.639602 -1.405177 4.842921
-7.807971 -1.412134 5.5665
-7.778538 -1.410277 5.643839
-7.471131 -1.417031 5.521597
-7.560006 -1.435015 5.596459
-7.34207 -1.417062 5.53745
-6.296229 -1.416493 4.981552
-7.41414 -1.414065 5.597943
-7.483471 -1.398716 5.664006
-6.137791 -1.399487 5.012616
-7.70508 -1.410523 5.828213
-7.451493 -1.408517 5.70177
-6.500011 -1.384067 5.220095
-6.919054 -1.396664 5.461557
-7.650353 -1.412738 5.828941
-7.530817 -1.413472 5.798556
-6.277524 -1.390827 5.229996
-6.741254 -1.462106 5.452188
-7.335062 -1.428165 5.742612
-7.4194 -1.422834 5.799024
-7.851642 -1.384187 6.005156
-6.850168 -1.407865 5.624484
-7.827665 -1.404554 6.052352
-6.384997 -1.403789 5.447856
-7.514471 -1.405759 5.985512
-6.440778 -1.405254 5.590522
-6.996283 -1.414362 5.809556
-7.453677 -1.408466 5.979605
-6.208424 -1.424637 5.512329
-6.781962 -1.407851 5.740639
-7.592553 -1.404695 6.081992
-7.835565 -1.409392 6.175342
-6.903025 -1.3945 5.972313
-6.234552 -1.396583 5.832942
-7.580914 -1.395598 6.21864
-7.405778 -1.41089 6.17611
-7.232326 -1.397423 6.193138
-6.060305 -1.494216 5.91222
-7.433428 -1.404963 6.260866
-7.635516 -1.419028 6.326957
-7.461497 -1.415622 6.32198
-7.044025 -1.426146 6.2424
-7.532131 -1.392672 6.357072
-7.859532 -1.377585 6.209161
-7.325903 -1.409219 6.050803
-7.587736 -1.408444 6.045388
-7.59775 -1.418796 6.064481
-6.475611 -1.399056 4.715593
-7.185268 -1.388853 5.246886
-6.302877 -1.387922 4.792556
-7.064578 -1.321159 5.415812
-6.362453 -1.481082 5.735306
-6.960115 -1.375009 6.176952
-7.861011 -1.408861 5.504663
-6.659801 -1.407041 4.587976
-6.878512 -1.406685 4.754893
-7.858903 -1.416181 5.54355
-6.921171 -1.408648 4.860657
-6.71215 -1.436694 4.749502
-7.339206 -1.417983 5.220594
-7.137387 -1.395418 5.183448
-6.13155 -1.382734 4.572758
-7.491727 -1.402746 5.493856
-8.109056 -1.398317 5.916471
-8.097607 -1.385828 5.919911
-8.009687 -1.391589 5.939652
-7.881671 -1.42327 5.907128
-6.603162 -1.401208 5.202339
-7.801011 -1.403944 5.935538
-6.964473 -1.423255 5.508736
-5.838606 -1.379065 4.946667
-7.573851 -1.408082 5.85572
-7.768867 -1.42277 5.973162
-6.213208 -1.384547 5.228762
-7.648728 -1.439887 5.967018
-7.422155 -1.433713 5.872855
-6.542472 -1.378463 5.544493
-7.38116 -1.40501 6.008465
-7.657561 -1.416044 6.16159
-6.929512 -1.405755 5.972421
-6.197379 -1.397291 5.750124
-7.486952 -1.410897 6.248815
-7.956723 -1.408217 5.567254
-7.375559 -1.441071 5.162483
-7.498909 -1.380615 5.278478
-8.120671 -1.357143 5.87217
-6.475153 -1.429438 4.933084
-7.273432 -1.406577 5.445493
-5.92914 -1.381721 4.801944
-7.545258 -1.403366 5.719762
-8.021696 -1.424713 6.010203
-7.476781 -1.410326 5.80665
-6.418134 -1.39941 5.35994
-6.529914 -1.384857 5.475593
-7.830682 -1.409705 5.354012
-7.475205 -1.417488 5.021765
-7.599827 -1.392024 5.151955
-7.543197 -1.400347 5.130627
-7.574001 -1.404351 5.155785
-6.80032 -1.348549 4.487446
-7.153706 -1.413328 4.786838
-7.310059 -1.410527 4.926159
-8.03852 -1.413398 5.583062
-7.63492 -1.407582 5.236487
-6.871524 -1.424426 4.587219
-7.840044 -1.413175 5.473808
-7.568456 -1.417113 5.3007
-6.527468 -1.401513 4.519439
-7.378473 -1.44398 5.458835
-7.431326 -1.432043 5.720323
-7.668274 -1.415136 5.858052
-7.726825 -1.429686 5.934911
-6.716554 -1.404971 5.499522
-7.282334 -1.399268 5.80411
-7.283476 -1.42272 5.832898
-5.581697 -1.348464 5.239946
-7.618068 -1.370135 6.221895
-8.121716 -1.392806 5.922325
-8.122456 -1.394524 5.940547
-7.196153 -1.397155 5.038036
-7.497529 -1.42147 5.528314
-8.104155 -1.396565 5.447707
-8.117649 -1.379314 5.481138
-7.852262 -1.414216 5.212453
-7.080206 -1.393128 4.420221
-7.879361 -1.413768 5.282193
-7.424824 -1.37959 4.852301
-7.009354 -1.405142 4.440122
-7.232292 -1.40097 4.690628
-6.481376 -1.408501 3.970215
-7.858405 -1.40975 5.375336
-7.911994 -1.416768 5.470651
-7.776689 -1.412685 5.419597
-7.866723 -1.417752 5.708112
-6.862305 -1.400726 4.945358
-7.991366 -1.41997 5.884776
-7.195765 -1.400656 5.296295
-7.111554 -1.426946 5.275791
-7.970175 -1.394608 5.903057
-7.567605 -1.457526 5.628857
-6.395324 -1.392075 4.882035
-7.5335 -1.39399 5.671078
-6.534404 -1.427506 5.115741
-7.556372 -1.409756 5.761549
-7.596382 -1.420719 5.818727
-7.637756 -1.403628 5.9356
-7.80879 -1.393188 6.082999
-6.517809 -1.267806 3.952144
-6.761266 -1.376679 4.266779
-7.637767 -1.421749 5.922184
-7.241869 -1.322483 5.835396
-7.676169 -1.41361 6.144135
-8.210276 -1.384133 5.422677
-7.494138 -1.404534 4.461198
-7.492718 -1.464518 4.423267
-8.092669 -1.426435 5.26074
-6.990096 -1.258755 3.890248
-8.063927 -1.409779 5.247646
-8.254617 -1.378206 5.520542
-7.908247 -1.405836 5.086362
-6.986953 -1.282158 3.971678
-7.378076 -1.392303 4.449372
-7.913234 -1.407694 5.137815
-7.189425 -1.395087 4.237796
-8.079145 -1.416724 5.389885
-6.976537 -1.328865 4.088676
-7.150352 -1.39688 4.268495
-7.767509 -1.407292 5.033515
-6.969364 -1.364594 4.106596
-7.230475 -1.395694 4.41305
-7.257831 -1.406615 4.446108
-7.458675 -1.4067 4.714901
-7.874269 -1.429536 5.197108
-6.774782 -1.373379 3.929217
-7.705934 -1.379803 5.094577
-6.450336 -1.300294 3.862206
-7.974655 -1.407127 5.531913
-7.546682 -1.415311 5.273227
-8.128476 -1.39934 5.862683
-6.807307 -1.410348 4.875118
-6.814062 -1.412274 5.057472
-7.520223 -1.344693 5.629264
-7.958293 -1.36112 6.042218
-7.402279 -1.412314 5.706455
-7.919371 -1.346394 6.053029
-6.680882 -1.392232 5.269279
-6.68028 -1.384678 5.313202
-7.392796 -1.408344 5.849502
-7.537261 -1.409241 5.150252
-6.368218 -1.408094 4.004995
-6.455373 -1.494601 4.254906
-7.428266 -1.416373 5.323218
-7.592658 -1.37144 5.608248
-7.934382 -1.409915 4.806873
-7.518475 -1.375849 4.229654
-7.661181 -1.3238 4.483493
-7.599377 -1.370976 4.409652
-7.416716 -1.298841 4.18587
-7.095618 -1.298045 3.720912
-7.268445 -1.260342 4.017694
-7.024923 -1.403456 3.629507
-7.820955 -1.415043 4.819249
-7.895261 -1.39779 4.94376
-7.964585 -1.399253 5.056542
-7.072064 -1.284053 3.822091
-8.292119 -1.394598 5.553194
-7.928379 -1.382226 5.080173
-8.247224 -1.383845 5.764739
-6.147226 -1.249509 3.848918
-6.515029 -1.416667 4.224199
-8.135215 -1.393544 5.873224
-6.993652 -1.3957 4.791493
-6.804671 -1.42576 4.645892
-5.733778 -1.338257 3.943495
-7.665549 -1.334221 5.706644
-6.449258 -1.418124 4.815652
-6.761503 -1.424371 5.064825
-7.873632 -1.369397 5.962739
-6.799636 -1.436964 5.262458
-7.639124 -1.412214 5.851676
-7.76978 -1.361752 5.965363
-7.361124 -1.381901 5.749976
-7.488716 -1.431508 5.879509
-7.923349 -1.383407 4.959225
-7.895381 -1.40735 4.929407
-7.905246 -1.365247 4.81847
-7.539 -1.442795 4.447177
-7.741722 -1.396558 5.071255
-6.897247 -1.379354 4.079463
-7.148401 -1.453615 4.766574
-7.002697 -1.396411 4.691206
-7.90166 -1.419498 5.708018
-7.030374 -1.408593 4.918627
-7.720353 -1.359698 6.000878
-7.728592 -1.324674 4.198067
-7.550022 -1.296707 3.909121
-7.334468 -1.236473 3.670712
-7.522255 -1.389953 3.9211
-8.298387 -1.427954 5.322255
-7.922701 -1.376266 4.694717
-8.303465 -1.373645 5.395266
-7.412292 -1.323833 3.967495
-7.60848 -1.401849 4.283221
-7.031155 -1.300866 3.648978
-7.980594 -1.397896 5.124418
-7.466812 -1.401119 4.408353
-8.095671 -1.385954 5.363667
-8.041186 -1.407732 5.316488
-7.514805 -1.468155 4.618871
-7.351088 -1.380496 4.492055
-7.80789 -1.401348 5.132386
-7.91346 -1.394755 5.278235
-6.979578 -1.40132 4.211623
-6.602216 -1.360307 3.784175
-8.224137 -1.388367 5.788188
-7.79907 -1.407586 5.302715
-7.979083 -1.426677 5.563185
-6.692308 -1.369652 4.088966
-7.709198 -1.431543 5.296877
-6.407151 -1.386224 3.910146
-6.685745 -1.332875 4.286442
-8.135907 -1.392497 5.842022
-6.425193 -1.385292 4.15471
-6.574067 -1.455869 4.317724
-7.808349 -1.4001 5.653665
-7.753518 -1.40548 5.629642
-7.093666 -1.358875 5.078842
-7.523738 -1.358389 5.56379
-7.466949 -1.384067 5.531223
-7.739088 -1.382207 5.798382
-6.319222 -1.442394 4.756001
-6.770216 -1.382753 5.103386
-7.250082 -1.418029 5.484794
-7.786883 -1.380363 5.953767
-7.748999 -1.378337 5.941571
-7.753677 -1.346165 5.994698
-7.951323 -1.366917 4.952325
-7.533313 -1.142553 3.941712
-7.128768 -1.296568 4.217082
-7.644943 -1.04072 5.017635
-7.841219 -1.442634 5.315099
-8.113097 -1.389713 5.861168
-7.885937 -1.392131 5.83122
-7.24201 -1.372617 5.411376
-8.394695 -1.383853 5.230031
-8.38141 -1.377524 5.289984
-8.197295 -1.389174 4.906149
-8.140663 -1.382482 4.792343
-8.396346 -1.386967 5.374598
-8.290536 -1.389112 5.160437
-8.035542 -1.407174 4.678794
-7.97566 -1.367834 4.775982
-8.184293 -1.427716 5.289394
-8.025084 -1.385494 5.082523
-8.03435 -1.383397 5.120941
-7.821064 -1.414125 5.070181
-7.222778 -1.439072 4.51843
-7.573709 -1.392787 4.973538
-6.983488 -1.419633 4.457066
-7.507067 -1.463655 5.117691
-7.449009 -1.460626 5.080506
-7.5914 -1.440883 5.251466
-6.947696 -1.376609 4.565164
-7.747692 -1.362885 5.557841
-7.572563 -1.37491 5.402706
-7.707631 -1.361964 5.587196
-7.765779 -1.391506 5.667334
-7.562835 -1.411217 5.506458
-7.237233 -1.351696 5.321783
-7.857977 -1.312561 5.965071
-7.589406 -1.438535 5.787809
-8.008489 -1.346237 5.007535
-7.97348 -1.387105 4.929729
-7.93938 -1.384225 5.255323
-7.084777 -1.392204 4.657501
-7.580452 -1.42676 5.639023
-6.703501 -1.438646 4.952736
-7.745003 -1.383519 5.893572
-7.432879 -1.367509 5.689131
-7.537232 -1.425302 5.790909
-6.919087 -1.337654 4.702025
-8.028686 -1.37941 5.855974
-7.987761 -1.353712 5.861919
-7.416756 -1.386845 5.392156
-7.360339 -1.393578 5.583229
-7.466708 -1.421497 5.715139
-8.116746 -1.330816 5.087662
-7.950196 -1.349252 5.870414
-6.887554 -1.351534 3.710522
-8.080506 -1.403811 5.395474
-7.923309 -1.406946 5.064218
-7.92625 -1.363949 4.698869
-7.358668 -1.387788 3.847221
-7.935856 -1.412919 4.909892
-7.725484 -1.391253 3.960171
-8.29207 -1.403399 5.14963
-8.032089 -1.412638 4.668413
-8.187226 -1.397338 5.302001
-7.991473 -1.415797 4.949623
-7.904257 -1.35513 3.997029
-8.093582 -1.41666 4.886475
-8.217008 -1.399027 5.255628
-7.552191 -1.390693 4.378466
-8.282382 -1.393822 5.346876
-7.160185 -1.356728 3.017952
-8.483592 -1.400721 5.067885
-7.579093 -1.357693 3.944981
-7.839878 -1.415512 4.106975
-7.621636 -1.40327 3.692544
-7.720688 -1.400702 3.333053
-8.350242 -1.345028 5.479927
-7.961831 -1.417654 4.867327
-8.380632 -1.35441 5.44459
-8.003311 -1.396529 4.572197
-8.296306 -1.395569 5.334345
-8.128724 -1.401924 5.051888
-7.273582 -1.405822 3.875086
-7.261015 -1.398543 4.452096
-8.241028 -1.392391 4.844073
-8.395602 -1.315228 5.537194
-8.435025 -1.358945 5.495677
-7.026048 -1.365515 3.589162
-7.266562 -1.375332 4.157179
-7.483085 -1.377275 4.432354
-7.81692 -1.40342 5.043474
-6.935887 -1.33345 3.873658
-7.833505 -1.399552 4.796627
-8.686705 -1.308549 5.36967
-8.62403 -1.383399 5.05294
-8.546559 -1.421434 4.562962
-8.298108 -1.265963 3.761688
-8.620099 -1.326335 5.358273
-8.508067 -1.373286 4.77317
-8.354919 -1.42172 3.944589
-8.36278 -1.403735 4.035691
-8.576148 -1.362887 5.156626
-8.539894 -1.399689 4.930665
-8.536541 -1.394944 4.985833
-8.429542 -1.402333 4.525773
-8.469565 -1.40931 4.734445
-8.384945 -1.394597 4.477899
-8.418531 -1.375525 4.770447
-8.170854 -1.406335 4.363329
-8.453664 -1.414198 5.328455
-8.396675 -1.387653 5.222551
-8.422703 -1.33856 5.448064
-8.423734 -1.403252 5.456337
-8.362148 -1.379155 5.347839
-8.133238 -1.416996 4.756941
-8.349576 -1.363052 5.507528
-8.019478 -1.411952 5.060651
-7.721169 -1.41354 5.151586
-7.72211 -1.409042 5.3067
-7.598422 -1.4001 5.151174
-7.914968 -1.402992 4.938745
-8.488255 -1.377292 4.125053
-8.608417 -1.296015 5.38259
-8.370955 -1.432272 4.098708
-7.712444 -1.432075 3.393879
-7.856256 -1.397549 5.162818
-8.700286 -1.311462 5.318783
-8.698354 -1.442539 4.93735
-8.634662 -1.410297 4.687758
-8.486781 -1.396549 4.005161
-8.499845 -1.416903 4.041642
-8.224035 -1.244468 3.776726
-8.354211 -1.400349 4.472753
-8.158928 -1.38746 3.726057
-8.290865 -1.389197 5.304843
-8.072295 -1.396218 5.006201
-8.222294 -1.378297 5.433287
-7.16603 -1.296947 3.071167
-7.422121 -1.406854 3.833009
-8.017067 -1.403133 5.203858
-7.192019 -1.37324 3.529216
-7.185064 -1.382696 4.13332
-7.853133 -1.376327 5.487075
-8.251052 -1.396952 4.865326
-8.62455 -1.465048 4.408192
-8.210965 -1.379677 4.45599
-8.19835 -1.373906 5.17691
-8.791027 -1.390601 5.215855
-8.781515 -1.417332 4.990315
-8.755378 -1.310611 5.34411
-8.717106 -1.18527 5.445997
-8.758133 -1.427927 4.993889
-8.734729 -1.441788 4.731136
-8.67149 -1.40827 4.148524
-8.705956 -1.269532 5.328937
-8.691069 -1.413654 4.599194
-8.515825 -1.299967 3.916118
-8.685351 -1.327329 5.460404
-8.434125 -1.41769 3.93092
-8.476665 -1.330698 5.412227
-8.566758 -1.391667 5.287028
-8.256725 -1.405281 4.713468
-8.373432 -1.403014 5.180259
-8.096883 -1.403432 4.660523
-8.24591 -1.432231 5.234462
-8.293166 -1.37085 5.464921
-8.206421 -1.408495 5.409761
-8.032612 -1.389442 5.111411
-7.980741 -1.403964 5.030746
-7.276605 -1.430894 3.367424
-7.885175 -1.381958 4.918808
-7.528712 -1.403654 4.490842
-7.499729 -1.390422 4.476416
-7.459994 -1.370333 4.545859
-7.413604 -1.396236 3.563065
-8.762802 -1.339669 4.38251
-8.590292 -1.39522 3.993054
-8.670495 -1.375914 5.20937
-8.652641 -1.300191 5.360057
-8.540016 -1.430079 4.001834
-8.36006 -1.403621 4.331756
-8.478394 -1.377781 5.332664
-8.402809 -1.343564 5.469807
-8.142445 -1.411047 4.440854
-7.973806 -1.41664 4.630465
-8.156239 -1.369493 5.243057
-7.484268 -1.40032 3.384926
-7.772657 -1.395386 4.557951
-7.358177 -1.404111 3.640157
-7.853853 -1.396338 4.879684
-7.577941 -1.36377 4.202111
-7.902128 -1.402093 5.022308
-7.946267 -1.39962 5.154337
-7.815041 -1.373943 4.980216
-7.9145 -1.377223 5.220594
-7.46005 -1.376847 4.289571
-7.872027 -1.404472 5.258739
-7.556577 -1.449163 4.550487
-7.551594 -1.427541 5.114811
-7.91607 -1.413444 4.703655
-8.465669 -1.406571 4.015867
-7.23946 -1.363135 2.851062
-6.826864 -1.279758 3.702611
-6.921951 -1.269137 3.732601
-8.439668 -0.8652957 3.900702
-8.442747 -1.362366 4.074602
-8.5325 -1.331348 5.316412
-8.513021 -1.414421 5.016941
-8.325093 -1.393588 4.904368
-8.247095 -1.410575 4.521019
-8.384059 -1.406515 5.272785
-7.808725 -1.423808 3.373889
-8.301954 -1.405633 5.376309
-8.247927 -1.413419 5.265592
-7.974105 -1.373816 4.760944
-8.144279 -1.415983 5.327989
-7.255252 -1.251774 2.982099
-7.445537 -1.371369 3.594447
-7.526262 -1.377926 3.931189
-7.818713 -1.422641 4.80493
-8.002584 -1.429029 5.257564
-7.978374 -1.379623 5.243648
-7.644103 -1.349616 4.429792
-7.968163 -1.397506 5.286999
-7.944332 -1.411464 5.282938
-7.906964 -1.408197 5.270723
-7.295786 -1.447874 4.118141
-7.681244 -1.391824 4.967832
-7.879388 -1.355012 5.570034
-7.5978 -1.400344 5.091764
-7.579027 -1.497465 5.193601
-7.625934 -1.418524 5.256226
-8.310483 -1.415561 4.239349
-6.653081 -1.320322 2.950012
-8.651705 -1.262272 5.40539
-8.517467 -1.349123 4.923225
-8.186459 -1.385329 4.681104
-7.954401 -1.415507 4.941308
-8.683352 -1.402564 4.907708
-8.45398 -1.395836 4.502872
-8.312063 -1.401475 4.487253
-8.343265 -1.417624 5.114589
-8.268124 -1.366588 5.451301
-8.141747 -1.419625 4.987122
-8.252046 -1.361647 5.455236
-8.228952 -1.375055 5.385871
-8.003657 -1.467386 4.69088
-8.103508 -1.402596 5.115524
-7.24006 -1.354268 3.430748
-7.860997 -1.399588 5.058316
-7.168625 -1.36637 3.295873
-6.827716 -1.241414 2.585297
-7.695656 -1.399979 5.078236
-7.878081 -1.394314 5.490404
-7.386328 -1.387482 4.490851
-7.315339 -1.410432 4.394867
-7.315244 -1.410205 4.644754
-8.650829 -1.389551 4.869755
-8.406846 -0.8025094 3.951149
-8.530135 -1.386814 4.7321
-8.498825 -1.399213 5.057012
-8.42326 -1.387868 3.775651
-8.331208 -1.39098 3.940932
-8.260294 -1.387607 5.283884
-8.165085 -1.368058 4.777641
-8.220086 -1.361345 5.172609
-8.085889 -1.435644 4.712453
-8.184043 -1.362507 5.431713
-7.591991 -1.11692 3.289262
-7.695424 -1.383672 3.782801
-7.775602 -1.426128 4.16716
-7.849462 -1.407508 4.932439
-7.784133 -1.407815 4.828914
-7.788387 -1.414495 4.855745
-7.940808 -1.398507 5.357115
-6.942906 -1.438532 3.127139
-7.75197 -1.40752 5.091456
-6.687961 -1.17408 2.555738
-7.885981 -1.382843 5.531838
-7.368759 -1.504914 4.468297
-7.363293 -1.403846 4.430565
-7.509247 -1.42784 4.79316
-7.786484 -1.401624 5.386105
-6.653105 -1.29363 3.001381
-7.627268 -1.401588 5.199589
-7.519198 -1.412181 5.007757
-7.161602 -1.388064 2.753005
-8.674019 -1.374627 4.564693
-8.46004 -1.354935 5.007659
-7.879021 -1.311603 3.273368
-7.112494 -1.473868 3.477604
-7.342507 -1.498994 4.497762
-8.592935 -1.426944 4.606645
-8.541941 -1.416213 4.79
-8.522158 -1.419293 4.805736
-8.470709 -1.290892 3.854932
-8.39199 -1.379183 4.563734
-8.355471 -1.407392 4.504075
-8.229067 -1.402618 4.721209
-8.211682 -1.367254 4.794576
-8.100587 -1.385263 4.516473
-8.193964 -1.391288 5.199584
-8.076283 -1.393715 4.626834
-8.092305 -1.402992 5.273176
-8.012416 -1.402725 4.982691
-7.998394 -1.368299 4.95094
-7.743721 -1.391696 4.018792
-7.919809 -1.399307 4.714743
-8.057017 -1.408942 5.388538
-7.693467 -1.384497 4.093701
-7.968556 -1.377597 5.070118
-7.873004 -1.400032 4.826511
-7.629289 -1.356186 4.331504
-7.592092 -1.335561 4.282405
-7.475972 -1.380073 4.025941
-7.787915 -1.417494 5.187366
-7.726855 -1.393716 5.077113
-7.075077 -1.331144 3.452091
-7.698698 -1.397003 5.143826
-7.312523 -1.397719 4.712061
-7.245438 -1.404824 4.60606
-7.38445 -1.399486 4.884837
-8.649524 -1.441795 4.50016
-8.408278 -1.391695 4.051795
-8.381227 -1.381881 3.884504
-8.331247 -1.41757 3.841286
-8.34437 -1.389115 4.974609
-8.201866 -1.402954 4.011961
-8.26949 -1.383492 5.367025
-8.144876 -1.379119 4.502522
-8.13609 -1.404694 4.765041
-8.211594 -1.34651 5.424623
-8.102904 -1.411338 5.023708
-7.791722 -0.8740819 3.401757
-7.887745 -1.401106 4.703669
-7.495849 -1.413605 3.786421
-7.932501 -1.407595 5.259636
-7.608267 -1.409645 4.361639
-7.929858 -1.420719 5.39004
-7.858247 -1.401037 5.222198
-7.484294 -1.374234 4.123523
-7.347065 -1.525035 3.910566
-7.539186 -1.367476 4.575077
-7.871015 -1.404342 5.471081
-7.211613 -1.437682 4.241457
-6.61538 -1.278654 2.901085
-7.164029 -1.426453 4.200571
-7.701598 -1.403223 5.424044
-6.640961 -1.392799 3.284023
-7.493312 -1.398501 5.08438
-7.256442 -1.432876 4.682838
-7.429119 -1.421602 5.026355
-7.548718 -1.374435 5.267296
-7.511284 -1.418797 5.160357
-7.936383 -1.399723 5.24603
-7.733062 -1.409696 5.058892
-8.415528 -1.356954 4.784342
-8.259853 -1.394228 3.807011
-8.216288 -1.338084 5.155448
-8.11248 -1.410055 4.61772
-7.877748 -1.35826 3.318555
-8.194345 -1.364611 5.38098
-8.096719 -1.369255 4.918849
-7.563264 -1.395639 3.652147
-7.471934 -1.410636 3.692945
-7.489382 -1.410181 4.454224
-6.967017 -1.410793 3.871939
-7.123324 -1.418034 4.235664
-7.030928 -1.413848 4.085431
-6.907782 -1.41636 4.019232
-7.562187 -1.382897 5.287729
-7.019776 -1.396007 4.251334
-7.241648 -1.384257 4.698372
-7.409366 -1.368323 5.007854
-6.633618 -1.356921 3.550867
-7.592095 -1.376888 5.413313
-6.674149 -1.436354 3.756798
-7.176599 -1.43401 4.688167
-7.499146 -1.395605 5.267413
-6.748729 -1.396539 3.889334
-7.970477 -1.393172 4.936702
-7.466573 -1.386566 5.244223
-7.816076 -1.322932 4.197404
-7.430086 -1.628718 2.83361
-7.813806 -1.448391 4.428997
-6.528306 -1.34198 2.870836
-8.326884 -1.407755 4.894798
-8.108912 -1.431219 3.798002
-8.164096 -1.375658 4.706172
-8.144917 -1.396574 5.001262
-7.887902 -1.397396 3.937591
-7.689478 -1.25318 3.249529
-7.963748 -1.404236 4.735272
-8.029133 -1.415498 5.09959
-7.401649 -1.439401 3.07357
-7.467847 -1.384887 3.83671
-7.820935 -1.38269 4.99569
-7.442778 -1.371766 3.881634
-7.131566 -1.443866 3.404609
-7.90467 -1.37484 5.53039
-7.093039 -1.599863 3.872976
-6.827821 -1.337717 3.13112
-7.426462 -1.361652 4.695762
-7.565065 -1.401959 5.124281
-7.594888 -1.384105 5.240973
-7.173492 -1.421956 4.502687
-6.772729 -1.49114 3.906111
-7.042766 -1.428082 4.374107
-7.490987 -1.45767 5.249391
-7.329234 -1.380544 4.942958
-7.561055 -1.383403 5.394606
-6.990587 -1.420133 4.417655
-6.861314 -1.414094 4.283717
