ply
format ascii 1.0
element vertex 1554
property float x
property float y
property float z
end_header
-7.91669 -0.7174172 -12.91534
-8.001659 -0.8321016 -13.2364
-8.035439 -0.6429898 -13.30328
-8.037648 -0.4674789 -13.28192
-7.951971 -0.5286081 -13.25325
-8.009391 -0.132733 -13.23696
-8.124825 -0.1391391 -13.68076
-7.731591 -0.6882317 -13.36247
-7.808187 -0.675173 -13.20759
-8.879409 -0.4274176 -13.24016
-8.510057 -0.07538804 -13.87365
-8.062604 -0.1556399 -13.49438
-9.504756 -0.4916314 -13.5098
-9.57286 -0.6208301 -13.56713
-9.078283 -0.6149332 -13.57502
-9.166825 -0.4029007 -13.72379
-8.737206 -0.5479368 -13.24461
-8.618187 0.04835636 -13.25749
-8.404555 -0.7428989 -13.00329
-8.496413 -0.4280288 -13.14185
-8.545109 -0.3806169 -13.22167
-8.345397 -0.7664616 -13.02675
-8.225728 -0.6684023 -12.89062
-8.217288 -0.7390102 -12.88458
-8.334666 -0.2515088 -13.0618
-8.225644 -0.5323734 -12.93396
-8.374372 0.00894849 -13.10417
-8.291445 -0.2515424 -13.03325
-8.826322 -0.08141074 -13.97033
-8.340197 0.07746346 -13.09936
-8.692138 -0.07171368 -13.77988
-8.241488 -0.3501914 -13.04575
-8.329554 0.03359331 -13.13202
-8.287176 -0.02970963 -13.09097
-8.328583 0.05399852 -13.15512
-8.162842 -0.8162344 -13.1615
-8.042284 -0.356616 -12.84449
-8.066978 -0.3006806 -12.88042
-8.613828 -0.09708622 -13.99819
-8.255389 -0.5080436 -13.50369
-8.267059 -0.1078649 -13.33995
-8.536938 0.005178913 -13.93346
-8.260797 -0.1161003 -13.3863
-8.534956 -0.1873832 -14.07384
-8.237985 0.03658661 -13.2522
-8.215079 -0.631 -13.61394
-8.148902 -0.5788296 -13.49597
-8.244054 -0.1134378 -13.45629
-8.145674 -0.159623 -13.26514
-7.915239 -0.6581037 -13.10575
-7.757986 -0.6609223 -13.01731
-8.200242 -0.01210749 -13.32961
-9.076924 -0.5148559 -13.5224
-8.341151 -0.07799371 -13.0833
-8.360895 -0.008810502 -13.11549
-8.190597 0.02671613 -13.23968
-8.791032 -0.4179261 -13.51204
-8.409127 0.06317306 -13.06712
-8.299769 -0.2474465 -13.06121
-8.356844 -0.187083 -13.57201
-8.084609 -0.1875625 -13.1586
-9.147061 -0.003925242 -13.18184
-9.284879 -0.4347426 -13.85582
-8.960153 -0.5123274 -13.50074
-9.083556 -0.264318 -13.74248
-8.675843 -0.5256494 -13.27374
-8.778746 -0.2248784 -13.40192
-8.690526 -0.4828463 -13.3308
-8.752607 -0.1376857 -13.45194
-8.972085 -0.4646645 -13.81626
-8.762274 -0.004554309 -13.4737
-8.743883 -0.4383673 -13.53331
-8.447744 -0.6338173 -13.17292
-8.665423 -0.4099272 -13.4781
-8.720491 -0.0187213 -13.49879
-8.415266 0.1040691 -13.02455
-8.344738 -0.1741312 -13.02553
-8.407959 0.1160349 -13.09541
-8.359959 0.1197427 -13.0287
-8.349586 0.1071889 -13.04799
-8.35522 -0.05971754 -13.13407
-8.327896 -0.1255004 -13.10795
-8.320065 -0.2016699 -13.12467
-8.330283 0.07860982 -13.0523
-8.041193 -0.5188544 -12.80515
-7.997861 -0.4763884 -12.76147
-8.088877 -0.3270488 -12.88564
-7.984813 -0.4473254 -12.78608
-7.912531 -0.917824 -12.95342
-8.591097 -0.1258661 -13.95368
-8.27922 -0.6972064 -13.65308
-7.961268 -0.5702845 -12.90409
-8.246404 -0.1973197 -13.29925
-8.25699 -0.126559 -13.3269
-8.48975 0.05726448 -13.829
-8.248 -0.2146889 -13.47128
-8.243342 -0.0005777255 -13.31604
-8.095866 -0.4900462 -13.37179
-8.001002 -0.5687094 -13.22443
-7.975735 -0.63354 -13.26607
-7.85643 -0.6760057 -12.99853
-8.155029 -0.09567896 -13.29311
-8.20954 -0.07614529 -13.46286
-8.180636 -0.1443744 -13.64292
-8.026492 -0.1732445 -13.28918
-7.782317 -0.6729407 -13.2507
-9.14473 -0.01159606 -13.16866
-8.763261 -0.4871027 -13.28743
-8.441602 -0.6054311 -13.09483
-8.573567 -0.02432036 -13.81498
-8.310334 -0.1421226 -13.39047
-8.139657 -0.1393324 -13.30937
-7.777907 -0.7980433 -12.99157
-7.728583 -0.8524585 -13.02081
-8.662215 -0.6769394 -13.29951
-8.763325 -0.2191186 -13.44743
-8.744981 -0.4767872 -13.54324
-8.283702 -0.5615387 -12.92988
-8.637035 -0.4176897 -13.45424
-8.261523 -0.5278874 -12.93552
-8.230808 -0.5214569 -12.89346
-8.24241 -0.5219909 -12.91461
-8.426668 0.1339554 -13.03843
-8.404772 0.09392307 -13.01537
-8.414057 -0.02135847 -13.09648
-8.313064 -0.3501649 -13.04993
-8.369411 0.09732988 -13.01869
-8.331578 -0.1387468 -13.06285
-8.176486 -0.4720955 -12.9399
-8.046311 -0.5657654 -12.76822
-8.273749 -0.2635323 -13.08508
-8.300815 -0.1893743 -13.1324
-8.301394 -0.110067 -13.12856
-8.722484 -0.001443468 -13.89812
-8.325133 0.02307125 -13.14715
-8.006869 -0.4045864 -12.78428
-8.680138 -0.01225686 -13.88158
-8.321207 0.03079627 -13.16937
-7.901048 -0.7099004 -12.90052
-7.898303 -0.6655714 -12.90232
-8.234493 -0.1540821 -13.25901
-7.912059 -0.6470546 -12.95003
-8.098402 -0.1321707 -13.01717
-8.008983 -0.5031169 -13.22362
-8.186207 -0.001366116 -13.30252
-8.390607 -0.03880645 -13.15009
-8.352294 -0.119826 -13.18539
-8.337426 -0.194219 -13.04574
-8.74643 -0.4456183 -13.34392
-8.385428 -0.00222005 -13.08934
-8.402743 0.1132106 -13.02879
-8.432095 -0.439404 -13.12564
-7.909633 -0.6453124 -12.91838
-8.501872 -0.0191379 -13.8753
-8.342853 -0.2199183 -13.06802
-8.317868 -0.1540428 -13.08683
-9.063275 -0.5449419 -13.59612
-8.856709 -0.6702327 -13.38336
-8.908182 -0.7085025 -13.3593
-8.862214 -0.2848585 -13.46784
-8.767624 -0.4477417 -13.33905
-8.740799 -0.5205506 -13.31775
-8.621017 -0.09989737 -13.93457
-8.44869 -0.1271171 -13.77397
-8.307753 -0.5739622 -13.55339
-9.766453 -0.635493 -13.71774
-9.765902 -0.7380528 -13.72101
-8.226567 -0.6619819 -12.89722
-8.319157 -0.2333834 -13.03782
-8.829593 -0.08076137 -13.9768
-8.335008 0.07962429 -13.10366
-8.535783 0.01093149 -13.94083
-8.469978 -0.1028953 -13.84576
-8.183152 -0.536524 -13.49188
-9.095885 -0.5260996 -13.54079
-9.822643 -0.2474578 -13.72046
-9.768605 -0.8394167 -13.7291
-8.691063 -0.4425689 -13.53065
-8.2298 -0.1626407 -13.24549
-10.02738 -0.871259 -13.53806
-9.904938 -0.8449674 -13.5033
-8.850286 -0.003907219 -13.87403
-8.742654 -0.07026258 -13.92921
-8.335875 -0.09294172 -13.14157
-8.958517 -0.01415845 -13.70631
-8.933924 -0.5575889 -13.46435
-8.811256 -0.1772276 -13.4614
-8.440478 0.04014483 -13.08263
-8.322002 -0.2367257 -13.01428
-8.269113 -0.2748735 -12.98233
-8.780841 -0.06024133 -13.82149
-8.62463 0.08162615 -13.93861
-8.535602 -0.05489316 -13.92787
-8.05066 -0.6920159 -13.44161
-9.365428 -0.2131608 -14.06717
-8.431464 0.02840783 -13.11095
-9.049455 -0.5172148 -13.53869
-9.849152 -0.316658 -13.46576
-9.760966 -0.3848812 -13.69153
-9.065495 -0.4825102 -13.59108
-8.90633 -0.2470412 -13.41997
-8.784549 -0.4848018 -13.38913
-8.601871 -0.4848337 -13.24512
-8.629788 -0.4908181 -13.486
-8.137683 -0.6582652 -12.81193
-8.687203 -0.4586828 -13.60397
-8.610672 -0.4344815 -13.48688
-8.921839 0.01142097 -13.84847
-8.617264 -0.4402977 -13.56003
-8.308739 -0.2479941 -13.01568
-8.849039 -0.0375476 -13.87453
-8.251893 -0.2645856 -13.00825
-8.334023 -0.1039336 -13.10087
-8.680352 0.07638603 -13.83057
-8.156015 -0.5301204 -13.47444
-9.442357 -0.2495871 -14.14511
-8.436618 -0.5494869 -13.13706
-8.628556 -0.2712446 -13.45453
-8.828724 0.004681356 -13.79739
-8.164974 -0.5259562 -13.49127
-9.797966 -0.1567363 -13.43725
-8.760971 -0.8455409 -12.67597
-9.271647 -0.2649375 -13.93296
-8.737595 -0.5020233 -13.48992
-8.230275 -0.5400903 -12.94378
-8.861625 -0.08240287 -13.79749
-8.386766 -0.2006548 -13.12432
-8.15818 -0.8571744 -13.10569
-8.33502 -0.1471464 -13.07427
-8.944171 0.02145515 -14.11801
-8.042736 -0.406309 -12.74824
-8.667644 -0.001215033 -13.84906
-8.017183 -0.307342 -12.72426
-8.252942 -0.6061366 -13.53708
-8.307974 0.07581782 -13.11008
-8.653573 0.1312599 -13.949
-8.598613 -0.6933209 -13.2857
-8.275606 -0.7929837 -12.91454
-8.741366 -0.4679228 -13.63492
-8.080763 -0.6975474 -12.82944
-8.124725 -0.6865949 -13.51972
-9.341627 -0.449855 -13.80903
-9.376779 -0.1874847 -14.08911
-8.781664 -0.437368 -13.36028
-8.632306 -0.4388657 -13.31074
-8.708623 -0.6481153 -13.56706
-9.022822 0.01665711 -13.87377
-8.408737 -0.4356622 -13.09724
-8.25811 -0.5387387 -12.8951
-8.107038 -0.6751261 -12.77508
-8.228171 -0.4517192 -12.94351
-8.843839 -0.01751504 -13.92948
-8.280707 -0.2139934 -12.99238
-8.022665 -0.7584213 -12.94668
-8.285566 -0.05473059 -13.07376
-8.350944 0.0415204 -13.14786
-8.697651 0.07145571 -14.0209
-8.585317 -0.1155045 -13.93558
-8.2107 -0.5188169 -13.51556
-8.816425 -0.1574547 -13.47131
-8.969128 0.01342263 -13.81267
-8.972349 0.04127946 -13.91689
-8.835447 -0.07626145 -13.98589
-8.365932 -0.00637643 -13.09057
-8.30476 -0.04973129 -13.06054
-9.179238 -0.1574761 -13.84931
-8.903702 -0.7400345 -13.40986
-8.298985 -0.2709325 -13.01613
-8.319856 0.07858551 -13.10347
-9.783998 -0.1361632 -13.37268
-8.369864 -0.1135542 -13.09472
-8.193763 -0.6137428 -13.07039
-8.811785 -0.06290091 -13.93253
-8.177174 -0.70056 -13.21008
-8.661289 -4.163384E-05 -13.90843
-9.844369 -0.9307789 -13.85949
-8.946309 -0.4349617 -13.32313
-9.056143 -0.5615942 -13.56378
-9.015292 -0.224825 -13.54176
-9.478776 -0.2185279 -14.18104
-9.111127 -0.1624379 -13.77103
-8.836552 -0.3536405 -13.48056
-8.332471 -0.7911393 -12.95245
-8.795222 -0.1388873 -13.48095
-9.091973 -0.002591938 -13.9059
-8.80167 -0.05638161 -13.47557
-8.78046 -0.1316777 -13.49003
-8.668129 -0.5294902 -13.50753
-8.497211 0.1469597 -12.98186
-8.355743 -0.6239122 -13.08444
-9.004491 0.05401573 -13.91874
-8.308957 -0.4807701 -12.99866
-8.502378 -0.1180529 -13.25417
-8.098133 -0.7699276 -12.97713
-8.775714 -0.06419447 -13.94882
-8.12757 -0.8206794 -13.10812
-8.272801 -0.6731213 -13.35475
-8.181763 -0.6255719 -13.12647
-8.375037 0.0962488 -13.05822
-8.191005 -0.6835883 -13.28567
-8.668462 -0.03834715 -13.9074
-8.255588 -0.763629 -13.55997
-8.260689 -1.260349 -14.11033
-8.303088 -0.05671357 -13.14491
-8.309673 -0.08234629 -13.08393
-8.304134 -0.02192914 -13.11463
-8.157366 -0.6211793 -13.51024
-8.574573 0.06719746 -13.9407
-8.356597 -0.09582329 -13.11992
-8.335434 -0.2184833 -13.0395
-8.865924 -0.2984128 -13.41649
-8.886165 0.06118021 -13.61534
-8.299735 -0.4973765 -12.87214
-8.998405 0.0491754 -13.83447
-8.563208 -0.3886496 -13.40068
-8.212038 -0.5903192 -12.94105
-8.768115 0.02233578 -13.93476
-8.371782 0.1185984 -13.04806
-8.328898 -0.2335358 -13.07289
-8.903852 -0.2587318 -13.48598
-8.902511 -0.2381351 -13.50759
-9.127526 -0.08279151 -13.81345
-8.596412 -0.752358 -13.28073
-8.777489 -0.3910959 -13.46327
-8.375107 -0.5060622 -12.91246
-8.979969 -0.005804852 -13.72328
-9.038578 0.04843878 -13.80413
-8.717756 -0.2414525 -13.45409
-8.994312 0.03218576 -13.86595
-8.790183 -0.0352 -13.54801
-8.693668 -0.06798623 -13.65687
-8.381577 0.1356305 -13.0618
-8.280709 -0.6174469 -13.57342
-8.930916 -0.6146892 -13.47187
-8.346048 0.03537714 -13.1303
-8.470221 -0.1203215 -13.21862
-8.820057 -0.09056541 -13.43563
-8.520189 -0.5230994 -13.23133
-8.711143 0.03278722 -13.95187
-8.444269 -0.7590201 -13.28294
-8.874277 -0.6703585 -13.34351
-8.77642 -0.5429534 -13.26752
-8.932315 -0.5102109 -13.47681
-8.749064 -0.5607689 -13.26356
-9.160326 -0.1447974 -13.81672
-8.880297 -0.2781681 -13.47128
-8.721782 -0.4891781 -13.32261
-8.454047 -0.6797819 -13.04072
-8.971606 -0.02429686 -13.73138
-8.608571 -0.1604692 -13.30318
-8.289557 -0.5609438 -12.98367
-8.812055 -0.06493346 -13.67183
-8.968625 0.06484299 -14.01128
-8.347754 -0.2590511 -13.02886
-8.216553 -0.5279613 -12.96531
-8.941411 0.0791428 -14.11893
-8.631619 -0.1267821 -13.68548
-8.613682 -0.1365722 -13.67635
-8.730451 0.137594 -14.07342
-8.971686 0.07120994 -13.96076
-8.842463 -0.148908 -13.50259
-9.286824 -0.6477171 -13.68247
-8.830753 -0.5698158 -13.3847
-8.971411 -0.03363837 -13.57788
-8.859875 -0.01311325 -13.86768
-8.525927 -0.2253339 -13.34641
-8.334479 -0.2021596 -13.1024
-8.23537 -0.6011108 -13.26442
-8.048675 -0.624861 -13.00387
-9.866992 -0.05252638 -13.47655
-9.819893 -0.01245094 -13.48793
-9.893148 -0.4048706 -13.80054
-9.568662 -0.8094097 -13.86806
-8.973238 -0.6061411 -13.37044
-9.079956 -0.5255619 -13.60267
-9.013709 -0.3142113 -13.58711
-9.28404 -0.2372645 -13.99429
-9.100686 -0.2349273 -13.78447
-8.714834 -0.4462522 -13.32519
-9.165042 0.03708648 -13.87473
-8.466949 -0.6367183 -13.0598
-9.221459 0.06863593 -14.01742
-8.962112 -0.01538632 -13.76031
-9.074957 0.07436513 -13.96232
-8.769362 -0.4692222 -13.70617
-8.551839 -0.6916313 -13.46351
-9.036925 0.07520578 -13.99191
-9.008877 0.07539874 -14.01568
-8.842505 -0.06055465 -13.89569
-8.328266 -0.1884937 -13.02762
-8.451757 0.05219314 -13.10232
-8.36492 -0.1708418 -13.10099
-8.293582 -0.250147 -13.08392
-8.730182 0.03677403 -14.00354
-9.935941 -0.8649799 -13.54181
-8.699018 -0.5599126 -13.24863
-8.770837 -0.1043342 -13.54273
-8.843891 -0.08655924 -14.01428
-10.01645 -0.1900141 -13.53185
-10.02444 -0.2891717 -13.60031
-8.751717 -0.7989371 -12.66501
-9.819016 -0.03658051 -13.94064
-8.660588 -0.8659495 -12.97859
-9.202969 -0.3863579 -13.76754
-9.498606 0.0294811 -14.11232
-8.96069 -0.301824 -13.50175
-8.969916 -0.3559637 -13.53193
-8.785935 -0.4471084 -13.37251
-9.450206 0.0260279 -14.21948
-8.875194 -0.2464233 -13.49837
-9.122835 0.0005525649 -13.81016
-8.763513 -0.4684918 -13.45666
-9.350817 0.04432078 -14.22961
-9.000676 -0.01385035 -13.71664
-8.963976 -0.04446591 -13.74838
-8.927908 -0.06410363 -13.76151
-8.446167 -0.261651 -13.14227
-8.350213 -0.2370148 -13.04033
-8.475406 -0.5878888 -13.75544
-8.179486 -0.6222643 -13.11094
-8.752625 -0.01976236 -13.96059
-8.97767 -0.04116724 -13.73186
-8.990384 -0.007340141 -13.70511
-9.059646 -0.6329329 -13.56374
-8.739921 0.03978902 -13.95762
-8.742684 0.009141319 -13.93888
-10.02255 -0.3112835 -13.66455
-9.75524 -0.7974361 -13.69279
-8.90387 -0.5421177 -13.29185
-9.370334 -0.3322483 -14.0744
-8.671257 -0.6885023 -13.31784
-9.285059 0.007731847 -14.0105
-9.090446 0.08267052 -13.87764
-9.228808 0.07829874 -14.15226
-8.772853 -0.1876178 -13.51495
-9.154635 0.08971905 -14.20396
-8.732172 -0.1265067 -13.55353
-8.651326 -0.1222189 -13.68203
-9.820503 -0.6745645 -13.76305
-9.141339 -0.5343247 -13.56917
-8.941092 -0.6146421 -13.39017
-9.135103 -0.2887977 -13.80966
-9.051293 -0.263535 -13.68734
-8.76383 -0.5184366 -13.3364
-9.131204 -0.1382737 -13.81524
-9.417525 0.02387758 -14.22864
-9.223229 0.01434383 -13.9271
-9.059844 -0.3330343 -13.80676
-8.980935 -0.3287069 -13.70942
-9.054836 -0.002365135 -13.7639
-8.816817 -0.2675042 -13.48175
-8.660925 -0.4270846 -13.30994
-8.412748 -0.7134641 -13.03033
-8.763391 -0.2285994 -13.44933
-8.618276 -0.4508936 -13.44009
-8.986527 -0.009419985 -13.92877
-8.620961 -0.1407367 -13.32738
-8.991248 0.07034383 -14.1021
-8.82541 -0.07319867 -13.88401
-8.661475 -0.1363524 -13.59816
-9.050092 0.04115922 -14.40554
-9.081579 -0.04980394 -13.76343
-8.828298 -0.152071 -13.49086
-10.06165 -0.2391323 -13.59855
-8.468915 -0.2900169 -13.15852
-8.80294 -0.1479129 -13.46784
-9.717505 -0.8641581 -13.76809
-9.642059 -0.7446238 -13.82844
-9.710269 -0.03650989 -14.26033
-9.211096 -0.2861585 -13.84463
-9.007588 0.05041647 -13.83545
-8.94614 0.06012682 -14.09018
-8.814714 -0.06004236 -13.95868
-10.06036 -0.8450809 -13.57193
-9.736718 -0.7007939 -13.63691
-9.025377 -0.6988871 -13.59159
-9.253368 -0.6141595 -13.90277
-9.517863 0.07646271 -14.10715
-9.487741 -0.2159221 -14.19873
-8.901118 -0.5146816 -13.41675
-8.919711 -0.4367419 -13.46349
-8.641091 -0.8466499 -13.32833
-8.717709 -0.4469467 -13.36418
-8.983877 -0.1444377 -13.69785
-9.07691 0.01514647 -13.79754
-8.74411 -0.5073661 -13.50031
-8.99533 0.03469337 -13.84853
-8.585238 -0.4004546 -13.3033
-8.69735 -0.0347221 -13.43328
-8.60089 -0.1372906 -13.33463
-8.746932 -0.4396479 -13.33726
-9.020173 0.06031617 -13.89762
-9.002866 0.05449401 -13.97151
-9.002838 -0.05737771 -13.70946
-9.005097 -0.2980235 -13.55695
-8.93159 -0.3963872 -13.46359
-9.200637 -0.04843291 -13.8846
-8.62069 -0.7107407 -13.31149
-8.69977 -0.4786367 -13.3995
-8.931361 0.004345663 -13.86896
-9.803229 -0.3940455 -13.71929
-9.805373 -0.77455 -13.7558
-9.894759 -0.05099548 -13.97143
-9.246506 -0.4448102 -13.7851
-9.115665 -0.3521704 -13.72055
-8.75746 -0.5740035 -13.242
-8.756598 -0.428323 -13.3218
-8.746474 -0.4005679 -13.40884
-9.00141 -0.04260773 -13.7149
-8.946924 -0.1233173 -13.66851
-8.925749 -0.1258793 -13.61769
-9.042209 -0.006435081 -13.80444
-8.835114 -0.1371921 -13.49089
-8.857678 -0.05432491 -13.50013
-8.620474 -0.3812626 -13.22001
-8.804838 -0.1530699 -13.47666
-8.778444 -0.1636622 -13.4981
-8.693891 -0.4168196 -13.5949
-8.679802 -0.164424 -13.36891
-8.815752 -0.05049577 -13.63222
-8.740797 -0.1289891 -13.52308
-8.85323 -0.06893353 -13.75655
-9.102443 0.1697506 -14.26075
-8.840663 -0.06946202 -13.78655
-8.591398 -0.4375754 -13.53607
-8.969373 -0.01250194 -14.14979
-8.850203 -0.002325229 -13.85956
-8.540579 -0.4717298 -13.55607
-8.955033 0.06901384 -14.15199
-8.922819 -0.005992517 -14.16035
-8.502716 -0.5988913 -13.64258
-8.733481 -0.06992692 -13.72668
-9.399699 0.02355561 -14.25703
-8.520116 -0.3622339 -13.1964
-8.841791 -0.250708 -13.55674
-8.980925 -0.05864461 -13.68992
-9.93579 -0.3139575 -13.80301
-8.821089 -0.3771864 -13.43519
-8.540003 -0.8130018 -13.33521
-8.746698 -0.1746613 -13.56398
-9.016328 0.07043474 -14.04548
-8.689654 -0.09081784 -13.57798
-8.67556 -0.1586442 -13.60585
-8.71968 -0.1243655 -13.80126
-9.448072 -0.7443759 -13.91165
-9.368705 -0.7714574 -13.91298
-9.147673 -0.6990713 -13.66605
-8.915385 -0.4466694 -13.24189
-9.085167 -0.6573196 -13.5764
-9.296865 -0.6393281 -13.91906
-9.064331 -0.6116616 -13.57832
-9.027346 -0.6304862 -13.63284
-8.866485 -0.6472718 -13.35784
-9.348624 -0.3603627 -14.09648
-9.112241 -0.07167926 -13.82434
-8.725947 -0.5390181 -13.33242
-8.637325 -0.5510702 -13.24754
-8.450002 -0.6633359 -12.99593
-8.847331 -0.1056474 -13.49385
-8.979071 -0.02577902 -13.73931
-8.641909 -0.3642097 -13.24294
-9.218724 0.04753473 -14.34067
-8.513106 -0.7242312 -13.32214
-9.126816 0.07267799 -14.28534
-9.054115 0.06743922 -14.18866
-8.756211 -0.07737765 -13.52148
-8.853862 -0.03443246 -13.88538
-8.457752 -0.3476508 -13.08052
-8.633307 -0.159695 -13.42856
-8.960073 -0.065406 -13.74916
-8.875819 0.004113771 -13.8985
-9.070284 0.03705921 -13.86747
-8.862756 -0.6585887 -13.37027
-9.299167 -0.6930118 -13.71927
-8.923409 -0.4683746 -13.28536
-9.244543 -0.2597311 -13.95263
-8.587242 -0.8624427 -13.33194
-9.007594 -0.004876278 -13.68777
-8.530486 -0.6959803 -13.20195
-8.753272 -0.4319008 -13.58359
-8.736922 -0.2293043 -13.47882
-8.656634 -0.4592921 -13.49753
-8.770498 -0.07748321 -13.49145
-8.565997 -0.5119098 -13.47049
-8.875924 -0.02975665 -13.92476
-8.504815 -0.5658191 -13.52651
-9.362823 -0.2110775 -14.05208
-10.00146 -0.2458985 -13.58379
-8.94238 0.02733743 -14.08815
-8.834999 -0.06714615 -13.9738
-10.02969 -0.2379723 -13.53878
-9.136582 -0.1827471 -13.83187
-8.793573 -0.1348521 -13.4749
-8.978187 -0.000194706 -13.71196
-9.534885 -0.03621433 -14.15682
-8.744915 -0.5400495 -13.24763
-8.611193 -0.4625809 -13.58343
-8.92575 0.0784676 -14.12364
-9.925519 -0.06799193 -13.51143
-8.721736 -0.4584759 -13.33549
-9.068665 0.07920421 -13.93489
-8.711245 -0.6205735 -13.28313
-8.957212 -0.0330532 -13.72032
-8.967253 -0.0115899 -13.70693
-10.00664 -0.3031155 -13.64722
-9.246668 0.06963367 -14.19999
-9.156166 0.09194205 -14.1919
-9.777683 -0.6321716 -13.71743
-9.126654 -0.2743356 -13.78209
-9.045197 -0.2349656 -13.656
-8.758728 -0.4944215 -13.29933
-8.972205 0.007312864 -13.8619
-8.822144 -0.06423099 -13.864
-9.674671 -0.7797385 -13.87389
-9.700904 -0.03075428 -14.24358
-9.182437 -0.2526298 -13.76145
-10.04554 -0.8390575 -13.56316
-9.051684 -0.7764747 -13.68816
-8.969037 -0.1181788 -13.65236
-8.989482 0.07009848 -13.91465
-9.001913 -0.05328403 -13.70217
-9.189573 -0.03449728 -13.85496
-8.613119 -0.725639 -13.32239
-8.691307 -0.4312284 -13.51923
-9.742336 -0.7037905 -13.68832
-9.857013 -0.03742478 -13.92993
-9.077914 -0.2841955 -13.62421
-8.745053 -0.3966465 -13.41491
-8.988872 -0.02141821 -13.66672
-8.870259 -0.08770982 -13.57149
-8.626713 -0.5080935 -13.33294
-8.861156 -0.07851505 -13.78921
-9.093664 0.1814392 -14.21912
-8.840436 -0.0619233 -13.77104
-8.856815 -0.008351497 -13.89128
-8.938224 0.08959682 -14.06964
-8.837032 -0.244224 -13.54801
-8.984337 -0.06390215 -13.70626
-9.007881 0.07688966 -14.02524
-9.800674 0.03128525 -13.93922
-9.332519 -0.7152879 -13.84836
-9.087289 -0.5635946 -13.53343
-8.92156 -0.4807253 -13.26752
-9.281617 -0.6172155 -13.89305
-9.053309 -0.5910856 -13.55385
-8.865939 -0.6707231 -13.37824
-9.0794 -0.03820647 -13.73991
-8.631757 -0.5834606 -13.27413
-8.628615 -0.6287341 -13.49437
-8.510856 -0.7103581 -13.3084
-8.853027 -0.03988818 -13.89722
-8.944262 -0.04282649 -13.69431
-8.868164 0.01573504 -13.86705
-9.251957 -0.2749717 -13.97699
-8.582429 -0.8833142 -13.34891
-9.001449 -0.001104787 -13.67585
-8.513674 -0.8298189 -13.28412
-8.741931 -0.3592066 -13.49295
-8.655422 -0.4804917 -13.51149
-8.861162 -0.001611963 -13.84458
-9.875519 0.01130269 -13.8247
-8.657916 -0.8766127 -12.97608
-9.161625 -0.3362949 -13.70688
-9.293003 -0.3303718 -14.0528
-8.893014 -0.4559386 -13.44883
-9.12076 -0.1212744 -13.77888
-8.898112 -0.2340343 -13.48473
-8.738235 -0.5059528 -13.30489
-8.688741 -0.5338149 -13.34027
-9.106956 0.07328293 -13.91448
-8.831955 -0.1591752 -13.50198
-8.828012 -0.09825936 -13.49518
-8.998664 0.007947624 -13.87514
-8.816037 -0.1102685 -13.48704
-8.733282 -0.04761206 -13.53391
-8.984957 -0.01022366 -13.88968
-8.878925 -0.5111582 -13.40031
-8.816538 -0.1527844 -13.46554
-8.915939 -0.4617814 -13.46656
-8.873001 -0.2458418 -13.48768
-9.25078 -0.6332453 -13.70599
-9.09845 -0.2173487 -13.81849
-8.950055 -0.02070608 -13.75426
-9.573717 -0.8264436 -13.10847
-9.851946 -0.3248029 -13.75442
-9.224809 -0.447381 -13.76517
-9.004989 -0.7001382 -13.56608
-8.971841 -0.3301582 -13.50385
-8.78397 -0.5087349 -13.3584
-8.702788 -0.5962814 -13.27758
-8.641733 -0.8965454 -13.36227
-8.726389 -0.4743392 -13.4805
-8.676565 -0.5944247 -13.50748
-8.533507 -0.5356867 -13.07111
-8.625064 -0.3656619 -13.22647
-8.475596 -0.5319604 -13.02279
-8.990187 0.06691322 -13.92574
-8.835978 -0.5430627 -13.30182
-8.976284 -0.03313032 -13.68526
-9.146403 -0.08140906 -13.80922
-9.229452 -0.8214052 -12.69637
-9.878778 -0.8097935 -13.49393
-9.160633 -0.3093917 -13.78813
-9.340744 0.05413371 -14.21703
-8.928591 -0.08216351 -13.61193
-8.8224 -0.2574381 -13.41317
-9.554532 -0.8524302 -13.07751
-10.01929 -0.8649551 -13.54566
-9.734614 -0.8009912 -13.68995
-9.881602 -0.04431161 -13.88292
-9.393117 -0.5034477 -13.93075
-9.242357 -0.3901614 -13.72866
-8.89666 -0.622203 -13.37693
-9.095213 -0.2546485 -13.65006
-8.96729 -0.4948227 -13.51246
-8.829724 -0.4671855 -13.24481
-8.88757 -0.4802645 -13.42748
-8.911095 -0.3453665 -13.44454
-9.124677 -0.07635269 -13.80392
-8.761995 -0.4128188 -13.308
-8.67135 -0.7833179 -13.37397
-9.073306 0.01658103 -13.78617
-9.206654 0.08159267 -14.09595
-8.951788 -0.1274061 -13.66177
-9.021727 0.0173239 -13.73449
-8.862279 -0.2705647 -13.57724
-8.665626 -0.4474866 -13.20062
-8.739334 -0.4218469 -13.38898
-8.990199 0.004495822 -13.74968
-8.68745 -0.4087392 -13.41065
-8.640856 -0.3985839 -13.25935
-8.567898 -0.4814177 -13.42572
-9.023254 0.01226009 -13.78627
-9.261647 -0.5813768 -13.8848
-8.508308 -0.6777697 -13.17504
-9.769815 0.02367077 -14.10735
-9.664764 -0.4020789 -14.09734
-9.487788 -0.05096975 -14.06729
-8.76997 -0.5226893 -13.27979
-8.790465 -0.4260866 -13.35467
-9.075128 0.03384291 -13.76213
-8.748014 -0.2298025 -13.43209
-8.917995 -0.06700829 -13.62803
-8.887118 -0.03838309 -13.92429
-9.851237 -0.02105993 -13.49159
-9.21495 -0.6256198 -13.68307
-9.147296 -0.6738221 -13.5906
-9.165556 -0.5992395 -13.64146
-9.054397 -0.6510085 -13.53891
-9.211078 -0.2947638 -13.80746
-9.418161 0.09005601 -14.19194
-8.905903 -0.5255466 -13.43149
-9.193073 -0.2883466 -13.95752
-8.859605 -0.4250471 -13.41177
-8.930998 -0.2510691 -13.50387
-8.834728 -0.2345619 -13.52924
-8.956966 -0.007856768 -13.74195
-8.7868 -0.1764703 -13.44997
-8.549302 -0.5965393 -13.23254
-8.782605 -0.0733204 -13.47651
-8.588926 -0.3934166 -13.22991
-8.462182 -0.6719924 -13.29404
-8.969884 -0.2924735 -13.50883
-8.961297 -0.2874091 -13.47811
-9.76201 -0.4960184 -13.66977
-9.775499 -0.8205283 -13.71109
-8.935671 -0.5382968 -13.34149
-8.921339 -0.1542702 -13.66831
-8.493437 -0.6625828 -13.23702
-9.991049 -0.3860658 -13.56517
-9.807264 -0.2823452 -13.92126
-9.596843 -0.8195502 -13.84108
-9.442 -0.5240762 -14.03054
-9.042457 -0.6700606 -13.46552
-9.025855 -0.8010629 -13.5003
-9.203178 -0.305628 -13.70889
-9.015433 -0.5446551 -13.45973
-9.08828 -0.4941237 -13.61427
-9.433072 -0.02674979 -14.22898
-9.203875 -0.2690194 -13.88281
-8.886949 -0.4320912 -13.31496
-9.303602 -0.05965291 -14.05433
-8.96703 -0.3218346 -13.53297
-8.949324 -0.1191111 -13.64719
-8.986579 0.008747146 -13.66894
-8.587193 -0.5834728 -13.175
-8.544292 -0.4432847 -13.01051
-8.485572 -0.6225535 -13.23887
-9.107308 0.03951869 -13.79459
-9.993853 -0.2021506 -13.54323
-9.133394 0.08239066 -14.18011
-9.872872 -0.2738755 -13.74491
-9.432912 -0.2260543 -14.23458
-9.229138 -0.2111444 -13.96788
-9.212471 -0.05799041 -13.93127
-8.915504 -0.3136988 -13.40041
-8.678875 -0.7859148 -13.31772
-9.112863 -0.002373405 -13.79422
-9.909438 -0.2926992 -13.80087
-9.803267 0.07412591 -13.7556
-9.062075 -0.7246486 -13.48556
-9.091776 -0.5195952 -13.53484
-9.495678 0.03024309 -14.10253
-8.840055 -0.590605 -13.34446
-8.778017 -0.4859582 -13.33751
-8.68317 -0.5681964 -13.26498
-8.855453 -0.1607938 -13.54583
-8.535233 -0.6363985 -13.19825
-8.897676 -0.2435184 -13.46787
-8.909514 -0.2558722 -13.47199
-9.697284 -0.369192 -14.15111
-8.849284 -0.2570879 -13.53241
-8.917688 -0.278058 -13.47723
-8.589167 -0.6187871 -13.19562
-9.25024 -0.7429371 -13.65209
-9.057393 -0.5290394 -13.57855
-9.767613 0.1138951 -13.45695
-9.389394 -0.525226 -13.95547
-8.894268 -0.5327751 -13.30437
-9.097814 -0.3498069 -13.69175
-9.56904 -0.8164096 -13.10154
-9.739762 0.155382 -13.3716
-9.763741 0.1411214 -13.43606
-9.745382 0.1415842 -13.45436
-9.498787 -0.8080354 -13.99485
-9.476101 -0.7273952 -13.96858
-9.698197 -0.08802661 -14.26186
-9.144249 -0.6186429 -13.79383
-9.357912 -0.2708637 -14.10707
-8.899654 -0.4161903 -13.2838
-8.989251 -0.6402372 -13.62869
-9.093717 -0.3177252 -13.68013
-8.910247 -0.4597646 -13.42826
-9.044299 -0.2810438 -13.60131
-8.976118 -0.2879782 -13.52777
-8.899045 -0.4442303 -13.47426
-8.786169 -0.5663783 -13.39017
-8.656476 -0.8120762 -13.36395
-8.748873 -0.4428999 -13.36087
-9.114232 0.07708132 -13.84848
-8.952869 -0.129704 -13.66939
-8.658028 -0.461163 -13.22928
-8.633116 -0.496961 -13.19758
-8.730889 -0.3817429 -13.38509
-8.583349 -0.5262733 -13.16658
-9.061583 0.044557 -13.84585
-8.912324 -0.4617981 -13.37042
-8.717865 -0.5615168 -13.23475
-9.795478 -0.035791 -13.29933
-9.865837 0.09419484 -13.79582
-9.86378 0.05525815 -13.9683
-9.819671 0.01618405 -13.96574
-9.174383 -0.6608197 -13.59295
-9.729157 0.0219169 -14.24464
-8.985304 -0.7194589 -13.42987
-9.391885 -0.5048601 -14.17912
-8.986497 -0.4696431 -13.51241
-9.256753 -0.2917365 -13.99602
-9.225406 -0.1165094 -13.91527
-8.986758 -0.3221335 -13.53201
-9.126766 0.01628879 -13.82998
-8.66635 -0.450309 -13.18961
-8.835424 -0.5639825 -13.30574
-8.631497 -0.4507696 -13.09827
-9.114678 -0.05963398 -13.80383
-9.112499 -0.498861 -13.49509
-9.278592 -0.6588685 -13.68195
-9.724882 -0.8687947 -13.78458
-9.273644 -0.4541812 -13.75433
-9.128409 -0.5129747 -13.54664
-8.950591 -0.2817808 -13.48199
-9.32505 0.05508363 -14.15923
-9.713226 -0.8573959 -12.92803
-9.909059 -0.3293289 -13.63619
-9.749399 -0.7081872 -13.69505
-8.934635 -0.4447599 -13.25071
-8.900941 -0.4487259 -13.26283
-8.871718 -0.5821129 -13.35354
-8.862458 -0.6070778 -13.35003
-9.177285 -0.2332342 -13.76431
-8.822035 -0.573916 -13.30018
-9.231201 -0.302243 -13.99672
-9.203443 -0.2369592 -13.95079
-9.182184 -0.1671146 -13.85728
-8.768158 -0.5038374 -13.22499
-8.837423 -0.4019885 -13.34835
-8.804324 -0.5245028 -13.3877
-8.786651 -0.5543676 -13.39888
-8.729918 -0.4580622 -13.26683
-9.06054 -0.04239133 -13.72459
-8.863791 -0.4523126 -13.31693
-9.216011 -0.5046381 -13.7999
-9.725684 0.01502263 -14.22833
-8.732412 -0.4729353 -13.21248
-9.54888 -0.1774014 -13.38995
-9.11476 -0.6704802 -13.63159
-10.10973 -0.8072177 -13.21437
-9.371064 -0.7842778 -12.74479
-9.543258 -0.8558995 -13.24044
-9.04239 -0.5814021 -13.4172
-9.095569 -0.530775 -13.50617
-8.961328 -0.8107997 -13.59052
-9.109751 -0.2852598 -13.64005
-9.072495 -0.3114151 -13.58333
-9.095245 -0.2770326 -13.65069
-8.901833 -0.5051908 -13.41384
-8.887793 -0.3912281 -13.29793
-8.908112 -0.4502337 -13.41934
-8.908813 -0.4418886 -13.44531
-9.226074 -0.07953897 -13.88973
-8.78447 -0.4743395 -13.22387
-9.219168 -0.06639171 -13.89305
-9.13633 -0.1325029 -13.76523
-8.892951 -0.3926097 -13.44823
-9.185238 -0.06225748 -13.8756
-8.668248 -0.6543145 -13.23733
-8.964876 -0.2836642 -13.49648
-9.219483 -0.2209846 -13.93865
-9.204763 -0.06265209 -13.89371
-9.528294 -0.7845129 -13.80899
-9.831163 -0.7532215 -13.45329
-9.119378 -1.210422 -13.72963
-9.712786 0.04131098 -14.2402
-10.26295 -0.9085203 -13.25748
-9.435426 -0.8441049 -12.91311
-9.550778 -0.7887289 -13.83514
-9.497885 -0.8080333 -13.83322
-9.264846 -0.5873161 -13.68975
-9.424661 -0.5526327 -14.00115
-9.178286 -0.6887113 -13.64799
-9.145589 -0.4074974 -13.72578
-9.052671 -0.4337405 -13.54183
-9.068204 -0.4043658 -13.56641
-9.022932 -0.4659649 -13.53524
-8.943014 -0.693786 -13.56177
-9.25438 -0.2539299 -13.88832
-9.238733 -0.2728464 -13.94243
-8.840851 -0.5595648 -13.28568
-8.954954 -0.4675881 -13.47973
-9.153237 -0.2196333 -13.75452
-8.935784 -0.496268 -13.52912
-9.421287 0.04652753 -14.1975
-8.871527 -0.4424441 -13.39972
-9.265545 -0.5796894 -13.89514
-10.17399 -1.045015 -13.18057
-9.969834 -0.7723988 -13.15424
-9.22708 -0.4510151 -13.77302
-9.354753 -0.2028738 -14.03763
-10.09963 -0.2769549 -13.59975
-10.07103 -0.1375385 -13.64044
-9.755701 -0.8363212 -13.71954
-9.471515 -0.03139331 -14.02889
-9.150468 -0.7432827 -13.6312
-9.367881 -0.1752043 -14.05021
-9.973974 -0.3728216 -13.54833
-9.042105 -0.7374359 -13.51359
-8.989033 -0.634654 -13.5342
-9.420908 -0.007201083 -14.20966
-9.223784 -0.2021948 -13.92555
-9.083054 -0.5028061 -13.51838
-9.233643 -0.6993847 -13.61027
-9.050066 -0.513065 -13.56272
-10.01923 0.06425359 -13.62833
-9.141248 -0.7526194 -13.67418
-8.896032 -0.3850458 -13.25591
-9.697324 0.02717192 -13.22081
-9.915224 0.0783119 -13.85894
-9.86794 0.05373969 -13.97604
-8.97903 -0.6967995 -13.41133
-9.046795 -0.22532 -13.55867
-9.271808 -0.6504764 -13.67164
-9.731434 -0.8859059 -13.80137
-9.260111 -0.4275979 -13.71169
-9.122747 -0.5127 -13.54254
-9.789097 -0.7644683 -13.74625
-8.92911 -0.4351954 -13.24365
-8.853808 -0.6149644 -13.35169
-8.822027 -0.4865076 -13.23964
-9.195111 -0.2249306 -13.93263
-9.211487 -0.5079201 -13.80348
-10.1965 -0.1109791 -13.80545
-10.05172 0.03055225 -13.65696
-9.548709 -0.8729927 -13.24527
-9.97314 0.03305089 -13.76299
-9.958539 0.07395216 -13.7577
-9.033484 -0.7511892 -13.4454
-9.096449 -0.5463281 -13.5206
-8.9609 -0.6394961 -13.46753
-9.109662 -0.2906169 -13.64814
-8.907041 -0.3683128 -13.29991
-8.876313 -0.4701937 -13.36472
-8.906338 -0.436854 -13.43906
-9.22816 -0.08416986 -13.90433
-9.533237 -0.7966055 -13.82095
-9.215232 -0.06324816 -13.8869
-10.38185 -0.852309 -13.48718
-10.31745 -0.8635011 -13.44222
-10.3095 -0.9015487 -13.43581
-10.38777 -0.8598227 -13.53761
-9.425662 -0.8213801 -12.90554
-9.804285 -0.2846034 -13.69471
-9.556426 -0.8007443 -13.84723
-9.501736 -0.8183529 -13.84338
-9.266222 -0.5939596 -13.69709
-9.429502 -0.5631037 -14.01715
-9.697681 -0.02166308 -14.35233
-9.256173 -0.2584082 -13.89933
-9.245435 -0.2885935 -13.97515
-8.841891 -0.5202504 -13.25784
-9.423573 0.04606282 -14.20787
-9.266548 -0.5854515 -13.90329
-10.16929 -1.039088 -13.17664
-9.976752 -0.7795316 -13.15613
-9.969702 -0.2526883 -13.71909
-10.3386 -0.8751695 -13.49081
-10.0361 -0.00201267 -13.66747
-9.282415 -0.6237892 -13.69343
-9.064317 -0.7578528 -13.46496
-9.008276 -0.6900433 -13.38014
-9.355334 -0.5489038 -14.14223
-9.060482 -0.5010542 -13.50699
-8.937898 -0.5046072 -13.3248
-8.923763 -0.8200877 -13.57913
-9.054584 -0.4831811 -13.62191
-9.229125 -0.2405921 -13.81761
-9.053477 -0.4349694 -13.61745
-9.573533 -0.8237512 -13.84718
-9.410517 -0.185441 -14.08894
-10.02698 -0.8694608 -13.56368
-10.04221 -0.2614336 -13.6209
-9.039754 -0.6490341 -13.33776
-9.720207 -0.04588271 -14.28978
-9.169344 -0.6234268 -13.70756
-9.147743 -0.480756 -13.66485
-8.975726 -0.919357 -13.6851
-9.009325 -0.6201817 -13.54122
-10.06517 -0.8652148 -13.14107
-10.44439 -0.8596559 -13.736
-9.576264 -0.8289296 -13.0756
-9.976137 -0.3080733 -13.52502
-10.03507 -0.05115231 -13.66675
-9.758439 -0.855724 -13.77711
-9.500948 -0.7430856 -13.95485
-9.235152 -0.773759 -13.83128
-9.11213 -0.5060714 -13.50068
-9.09861 -0.7609743 -13.67241
-9.217466 -0.4116617 -13.7495
-9.161806 -0.4381563 -13.66387
-9.007946 -0.6135836 -13.55851
-8.957295 -0.5560662 -13.42937
-9.390067 -0.609726 -13.98611
-9.347798 -0.5579081 -14.03283
-9.170338 -0.7661505 -13.55614
-9.139345 -0.77539 -13.53131
-9.684397 -0.6892115 -13.92633
-9.997988 -0.8763058 -13.01483
-9.996367 -0.5168548 -13.5389
-9.343834 -0.8558692 -12.96865
-9.92691 -0.7922021 -13.51254
-10.11614 0.0894685 -13.72775
-9.897147 -0.2857923 -13.79051
-9.8009 -0.6659965 -13.74632
-9.624609 -0.8280889 -13.78956
-9.29357 -0.6606903 -13.69358
-9.09762 -0.7666959 -13.48955
-8.996658 -0.3651894 -13.17934
-9.955206 -0.8034377 -13.48015
-10.00689 -0.7742938 -13.5425
-10.46643 -0.8573516 -13.20448
-10.09414 -0.9681493 -12.97178
-9.898281 -0.8558766 -13.49634
-10.14608 -0.03085493 -13.7319
-10.03679 0.01993031 -13.67092
-9.70966 -0.5668668 -14.01226
-9.505695 -0.8845158 -13.87555
-9.480128 -0.74994 -13.99116
-9.170269 -0.75985 -13.55215
-12.17953 -0.4458345 -13.95528
-12.28956 -0.4727079 -14.09859
-10.44891 -0.9001754 -13.37125
-9.573668 -0.864499 -13.09445
-9.764035 -0.7459353 -13.79832
-9.909856 -0.8683853 -12.68004
-10.54505 -0.8405576 -13.03687
-9.952899 -0.8566922 -12.81957
-10.44452 -0.8527138 -13.16413
-9.968361 -0.5775151 -13.54568
-10.10242 0.09608909 -13.71559
-9.8485 -0.4881684 -13.77751
-9.663459 -0.8232384 -13.80848
-9.575444 -0.8391094 -13.8662
-13.23803 -0.7343724 -13.99124
-9.902746 -0.8511806 -13.51779
-9.996728 -0.2766542 -13.75009
-10.78675 -1.048298 -12.95491
-10.5033 -0.8486308 -12.91372
-9.983377 -0.8511757 -13.0111
-9.59013 -0.8581635 -13.0838
-10.34032 -0.8236941 -13.72291
-10.02959 -0.3547182 -13.57689
-9.801098 -0.7740687 -13.70933
-10.02638 -0.04719976 -13.65812
-10.02865 -0.06774689 -13.68232
-10.02185 -0.04142098 -13.68434
-9.951306 -0.7907912 -13.48332
-10.01712 -0.77814 -13.54828
-10.83638 -0.8400502 -12.77568
-10.81624 -0.9124314 -12.75585
-10.78834 -0.8667569 -12.8085
-10.48533 -0.8270293 -12.94586
-10.56987 -0.827785 -13.07869
-10.01205 -0.8861637 -12.97938
-10.03307 -0.8848304 -13.00305
-9.981989 -0.5396351 -13.55465
-9.985042 -0.4555741 -13.56321
-10.05609 -0.3201349 -13.64648
-10.05231 -0.3193979 -13.73577
-10.07968 -0.09268334 -13.66395
-9.978367 -0.304597 -13.73916
-10.06243 -0.03227412 -13.68974
-10.91242 -0.7623265 -12.81001
-10.48263 -0.5345165 -13.60179
-10.96882 -0.6089143 -12.98069
-9.903102 -0.8337265 -12.52993
-10.59766 -0.8722231 -13.2167
-9.793348 -0.7795638 -13.76655
-10.09078 -0.1452446 -13.68522
-10.10906 -0.6806589 -13.58496
-10.5251 -0.8942965 -13.41414
-10.81538 -0.8105577 -12.77535
-10.91413 -0.8373259 -12.73446
-10.97176 -0.7415305 -12.78144
-10.72408 -0.9302348 -12.79577
-10.89075 0.04921898 -12.9154
-10.69005 -0.8088096 -12.97144
-11.00012 -0.6894656 -12.72001
-10.27692 -0.8285273 -12.85043
-9.983683 -0.8396096 -12.65773
-10.76495 -0.8015507 -12.75227
-10.9577 -0.7859294 -12.90564
-10.86548 -0.5083676 -12.98198
-10.95928 -0.4874079 -13.04909
-10.60005 -0.8238025 -13.11547
-10.21441 -0.8450726 -12.65974
-11.1315 -0.8024777 -12.33703
-11.08473 -0.8042423 -12.42308
-10.98185 -0.8103971 -12.81783
-10.96857 -0.7827903 -12.8624
-11.43118 -0.7716975 -11.95681
-10.93452 -0.8102555 -12.84047
-11.50602 -0.8190647 -11.88979
-10.97356 -0.8287679 -12.53726
-10.27377 -0.8161426 -12.84888
-10.49656 -0.871856 -12.33815
-10.82037 -0.624436 -12.76566
-11.22989 -0.8679255 -12.36728
-11.53604 -0.8362963 -11.95918
-10.97245 -0.4613579 -12.67096
-10.77589 -0.8116236 -12.75016
-11.08135 -0.906363 -12.95457
-10.65308 -0.7825809 -12.94035
-10.3631 -0.8358834 -12.0559
-10.8841 -0.7807781 -12.7567
-10.93368 -0.7434105 -12.79194
-10.37189 -0.9013995 -12.0464
-11.02234 -0.8802956 -12.71372
-10.89615 -0.832089 -12.78708
-10.95933 -0.7910828 -12.81782
-11.04132 -0.8316423 -12.72928
-10.99934 -0.8476295 -12.86954
-10.83565 -0.831408 -12.21788
-10.98036 -0.7958033 -12.69073
-10.82139 -0.8531202 -12.80353
-11.48093 -0.7928655 -11.94511
-11.49938 -0.8058525 -11.96093
-11.49763 -0.8266628 -11.2218
-11.38476 -0.8373677 -11.67109
-10.93182 -0.7840238 -12.67916
-10.97193 -0.7868747 -12.68471
-11.53885 -0.7015859 -11.10761
-11.58406 -0.527939 -11.25999
-11.48041 -0.7078846 -11.48428
-11.43867 -0.704587 -11.62315
-11.50849 -0.6677336 -11.21975
-11.80674 -0.8233961 -11.14224
-11.55349 -0.6955751 -11.41539
-11.18521 -0.8187344 -11.7359
-10.62485 -0.8094632 -11.95921
-11.2528 -0.7290537 -11.05857
-11.24004 -0.8538353 -11.03797
-11.47772 -0.7961332 -11.89195
-11.23908 -0.7649214 -12.20887
-11.05513 -0.7559924 -12.43891
-11.47283 -0.8589582 -11.91089
-11.45738 -0.851476 -11.42224
-11.37665 -0.6828454 -11.61666
-10.96693 -0.7941199 -12.64799
-11.02096 -0.7708265 -12.52568
-11.44156 -0.6123842 -11.16655
-11.5808 -0.741134 -11.1062
-11.35977 -0.8553085 -11.27839
-11.28069 -0.7592672 -10.93193
-11.23475 -0.8287141 -10.95198
-11.22592 -0.6354008 -11.07263
-11.33041 -0.5105075 -11.15091
-11.61715 -0.7862722 -11.17882
-10.96721 -0.7818452 -12.39723
-11.47448 -0.8265938 -11.90524
-11.4564 -0.8177114 -11.68408
-10.98563 -0.8655121 -11.07058
-11.16431 -0.8264987 -12.33407
-11.11845 -0.8166752 -12.44729
-11.48544 -0.8133268 -11.89368
-11.15257 -0.6395259 -11.04386
-11.19867 -0.7047516 -11.04636
-11.35428 -0.6153868 -11.6418
-11.1404 -0.799763 -10.87429
-11.2073 -0.6446647 -11.02019
-11.44665 -0.7130595 -11.20515
-11.62319 -0.4293174 -11.24389
-11.43055 -0.4460868 -11.45511
-11.44537 -0.7179766 -11.56243
-11.48864 -0.6040931 -12.08948
-11.08808 -0.807501 -12.2779
-11.01761 -0.8632581 -11.09619
-11.14328 -0.6439721 -10.9572
-11.16845 -0.6126847 -10.82817
-11.03288 -0.2635266 -11.08447
-11.1469 -0.274094 -11.1284
-11.19142 -0.7794899 -11.10887
-11.24136 -0.833333 -11.12845
-11.53372 -0.7292602 -11.13102
-11.47829 -0.7453394 -11.23053
-11.65032 -0.6245072 -11.22843
-11.56968 -0.755432 -11.26414
-11.62609 -0.4546862 -11.2652
-11.52868 -0.7830087 -11.79859
-11.43744 -0.7848246 -11.87558
-11.45245 -0.7705512 -11.96481
-11.66679 -0.442053 -11.24062
-11.50867 -0.8076565 -11.78939
-10.96111 -0.3110794 -11.14374
-11.19414 -0.8384404 -11.00263
-9.930744 -0.8284677 -11.67474
-11.17969 -0.7477821 -10.79484
-11.67218 -0.4874936 -11.16238
-11.53022 -0.3302736 -11.48021
-10.31827 -0.7664477 -12.34569
-9.918255 -0.8305222 -11.67544
-11.25685 -0.7420031 -11.1233
-11.41625 -0.393608 -11.45594
-10.80272 -0.8193927 -11.99659
-11.40965 -0.8186736 -11.66107
-11.17148 -0.6682767 -11.43256
-11.44871 -0.7883543 -11.25379
-11.11499 -0.7295139 -11.13856
-11.07 -0.4830524 -11.19599
-11.28919 -0.8093874 -10.92475
-11.27123 -0.6863078 -10.98732
-11.07622 -0.7064732 -11.22893
-11.46204 -0.6508386 -11.21804
-11.09764 -0.6727495 -11.18634
-10.71271 -0.2807005 -11.54781
-10.38549 -0.8402466 -11.67643
-11.30307 -0.7588093 -11.05484
-9.936209 -0.76368 -11.69455
-10.05554 -0.8176069 -11.74269
-10.13401 -0.7875971 -10.64019
-9.874197 -0.7264667 -11.86931
-10.41593 -0.9463435 -10.40138
-9.587755 -0.7025717 -10.99508
-9.610291 -0.6827026 -11.23168
-9.615796 -0.7026608 -11.00081
-10.0532 -0.7448842 -11.54162
-10.51064 -0.8476883 -11.92256
-10.52161 -0.863701 -11.90379
-9.942595 -0.7849926 -11.69004
-9.520247 -0.7606265 -11.06137
-9.797237 -0.6746793 -11.95575
-9.802591 -0.7167733 -11.94222
-9.983829 -0.8035103 -11.41882
-10.30857 -0.7817721 -11.41949
-9.87863 -0.8037153 -11.86847
-9.461271 -0.7894354 -11.05788
-9.567455 -0.7467163 -10.95673
-9.579499 -0.8130622 -10.90143
-9.521394 -0.8138195 -11.03415
-9.420613 -0.8036507 -10.8742
-9.457314 -0.7826281 -11.06501
-9.373103 -0.650363 -11.12386
-9.349709 -0.811166 -11.14966
-9.318686 -0.6652701 -10.71993
-9.378769 -0.5916584 -10.74603
-9.361033 -0.8372037 -10.83964
-9.343204 -0.7932728 -10.69557
-9.319604 -0.6085756 -11.10879
-9.3144 -0.7875975 -10.69315
-9.41046 -0.8175866 -10.81135
-9.210135 -0.7930543 -11.19318
-9.292231 -0.7337887 -10.91177
-9.314821 -0.4081681 -11.09433
-9.155264 -0.8231806 -11.19387
-9.086695 -0.6378092 -11.02874
-9.153877 -0.7262616 -11.00626
-9.980753 -0.8166765 -11.41796
-9.173344 -0.8073586 -11.40494
-9.273468 -0.4009459 -11.0917
-9.278125 -0.6762311 -11.07568
-9.777987 -0.7807074 -12.02616
-9.354944 -0.7627537 -11.10994
-9.774155 -0.81789 -11.96459
-9.373932 -0.6761306 -10.71418
-9.954529 -0.8254833 -11.4441
-10.05879 -0.7839385 -10.59713
-9.070886 -0.7547057 -11.12826
-9.105929 -0.5320054 -11.03501
-9.038033 -0.6978255 -10.93516
-9.384119 -0.6569573 -11.12303
-9.388306 -0.5406402 -10.83576
-9.400955 -0.7302208 -10.84931
-9.504691 -0.8194717 -10.9646
-9.114601 -0.4921962 -11.2828
-9.177596 -0.6227888 -11.05498
-9.367507 -0.7975268 -10.83547
-10.05909 -0.8305392 -11.51568
-9.140039 -0.7791908 -11.28118
-9.887667 -0.7867746 -12.13782
-9.328227 -0.7542229 -10.83065
-9.494325 -0.8126939 -11.02117
-9.804379 -0.7635716 -12.21493
-9.319432 -0.8069541 -11.56833
-9.124368 -0.8251379 -11.74317
-9.222521 -0.8109401 -11.74691
-9.69521 -0.80508 -12.31808
-9.787178 -0.7975447 -12.20181
-9.618929 -0.8056931 -11.83106
-9.327207 -0.7883797 -11.20022
-9.472725 -0.8043981 -12.12841
-9.174037 -0.7905636 -11.21696
-9.093744 -0.8221591 -11.75345
-9.280689 -0.8228721 -11.95482
-9.201135 -0.8083383 -11.1801
-9.943078 -0.8173395 -12.09935
-9.296371 -0.7788513 -11.93854
-9.376512 -0.7709668 -12.03894
-9.305008 -0.7495209 -11.85836
-9.619808 -0.7721945 -12.05373
-9.861438 -0.7943122 -11.87397
-9.353101 -0.7985566 -11.15483
-9.16202 -0.6859601 -11.43624
-9.343181 -0.7647069 -11.19018
-9.93789 -0.7917706 -11.69885
-9.119645 -0.7823002 -11.46547
-9.894011 -0.8174506 -12.1429
-9.560239 -0.7307826 -12.27
-9.748545 -0.7866982 -12.12425
-9.871965 -0.7982355 -11.86726
-9.807562 -0.8475089 -11.63032
-9.753588 -0.8141054 -12.01575
-9.81741 -0.8121846 -11.78463
-9.448296 -0.851566 -12.22156
-9.282163 -0.8283382 -11.85526
-9.614205 -0.8261204 -12.32784
-9.649714 -0.8205647 -12.34709
-9.897377 -0.7979655 -11.89253
-9.258313 -0.8350905 -11.92505
-9.437697 -0.8856969 -12.19718
-9.348935 -0.8219998 -11.99818
-9.167662 -0.8151011 -11.40559
-9.935081 -0.8420802 -12.02999
-9.351596 -0.7454784 -12.01732
-9.674109 -0.812001 -11.97244
-9.25551 -0.8340418 -12.16292
-9.36609 -0.8634606 -12.00806
-9.266926 -0.8191574 -11.91453
-9.47739 -0.8134928 -12.4666
-9.487128 -0.818551 -12.45406
-9.326238 -0.8391004 -12.00142
-9.463079 -0.8321126 -12.12926
-9.473828 -0.8145577 -12.48224
-9.547564 -0.8421962 -11.97029
-9.309984 -0.8148282 -12.09632
-9.394281 -0.8220696 -12.57323
-9.459675 -0.813195 -12.64456
-9.365902 -0.8278661 -12.5497
-9.36598 -0.8430914 -12.41327
-9.373067 -0.8455021 -12.22606
-9.472778 -0.8085452 -12.65524
-9.363564 -0.7696613 -12.69395
-9.570691 -0.7549182 -12.68981
-9.411952 -0.8213098 -12.26389
-8.969855 -0.8625036 -12.03404
-9.356555 -0.8070185 -12.70339
-9.143489 -0.8435163 -12.79559
-9.396333 -0.8249359 -12.54641
-9.383425 -0.8394548 -12.31317
-9.090533 -0.7943909 -12.1636
-9.455996 -0.8371192 -12.65844
-9.386869 -0.8345257 -12.69364
-9.473504 -0.8168407 -12.43333
-9.029376 -0.816676 -12.52258
-9.411872 -0.8496052 -12.37554
-9.242075 -0.7746413 -12.26817
-9.709553 -0.8269802 -12.42397
-9.216438 -0.8527259 -12.39131
-9.993106 -0.8019164 -12.98646
-9.577519 -0.8137891 -12.70809
-9.964667 -0.7891842 -13.02795
-10.02104 -0.7316712 -12.68029
-9.972736 -0.8116014 -12.61336
-9.425716 -0.8641996 -12.9324
-10.24811 -0.7592949 -12.85573
-9.909267 -0.768573 -12.68615
-9.761023 -0.7301595 -13.75411
-9.895374 -0.7879966 -13.48596
-9.80134 -0.7796632 -13.59092
-9.699378 -0.8432785 -12.78476
-9.981776 -0.7923975 -13.02248
-9.651623 -0.8364481 -12.71933
-9.78568 -0.8302829 -12.77821
-9.572341 -0.8254626 -12.91106
-9.915192 -0.7252303 -13.52438
-10.04395 -0.7835664 -13.14052
-9.811452 -0.7952698 -12.81305
-9.61729 -0.7778882 -12.76105
-9.601253 -0.7962899 -12.73438
-10.03538 -0.7787422 -13.54891
-10.00036 -0.8037145 -13.63329
-9.636134 -0.8273543 -12.97353
-9.325829 -0.8673049 -12.99852
-9.548087 -0.7700596 -13.86294
-9.558164 -0.7871068 -13.86457
-9.772063 -0.7429321 -13.74841
-9.570411 -0.8251402 -13.13848
-9.333471 -0.3872716 -13.34179
-10.01603 -0.7960756 -12.89986
-9.870488 -0.856703 -12.75037
-9.515507 -0.8093752 -13.10737
-9.785302 -0.680268 -13.74573
-9.900003 -0.8327711 -13.52923
-9.746045 -0.7247598 -13.75734
-9.74855 -0.8181508 -12.7181
-9.627104 -0.8217111 -12.83046
-9.574345 -0.8218531 -12.70532
-9.999811 -0.8445191 -12.89706
-9.970316 -0.8197789 -13.02963
-9.439099 -0.832877 -12.93255
-9.005045 -0.7847738 -13.52677
-9.065522 -0.8048937 -13.80306
-9.472708 -0.8398843 -12.73491
-9.214633 -0.7370086 -13.76539
-9.56922 -0.8425699 -13.12086
-9.554259 -0.8484035 -13.09879
-9.591477 -0.8269225 -12.7273
-9.16572 -0.8027389 -13.68905
-9.235293 -0.679922 -13.77074
-9.010579 -0.8200481 -13.70995
-9.183283 -0.7673752 -13.66055
-9.576317 -0.8487779 -12.99465
-9.006457 -0.6130553 -13.52971
-9.258181 -0.8331823 -13.04421
-9.328934 -0.8264738 -12.72873
-8.837098 -0.8166904 -13.60207
-9.465202 -0.8444824 -12.75468
-8.974627 -0.7479823 -13.49357
-8.688922 -0.8515689 -13.17607
-9.102344 -0.8212374 -12.98814
-9.138873 -0.8429994 -12.69866
-8.74664 -0.7525849 -13.41921
-8.803354 -0.8468724 -12.78835
-8.737937 -0.847406 -12.69168
-9.416867 -0.8304835 -12.34966
-8.287638 -0.7400625 -12.98911
-8.447339 -0.7315996 -13.07756
-8.260743 -0.7149547 -13.00842
-8.342299 -0.7246599 -12.9907
-8.228854 -0.7946222 -12.95508
-8.27043 -0.7704027 -12.91461
-8.673464 -0.8712711 -12.19067
-9.351688 -0.7953758 -12.70052
-8.63153 -0.8264757 -12.99993
-8.310901 -0.7378069 -12.96521
-8.271892 -0.7215075 -12.90021
-8.967039 -0.8485631 -12.19163
-8.110743 -0.8509773 -12.78151
-8.236009 -0.7890031 -12.93322
-8.121703 -0.8133237 -13.17627
-8.103827 -0.804831 -12.78127
-8.207472 -0.747735 -12.8857
-8.092753 -0.7310253 -12.82737
-9.070456 -0.8431184 -12.42518
-8.831938 -0.8623405 -12.28742
-9.178374 -0.8403707 -12.36968
-8.271978 -0.7808864 -12.88838
-8.969863 -0.8583171 -12.91164
-8.192411 -0.6811929 -13.02778
-9.087244 -0.8261254 -12.39679
-8.721158 -0.8870981 -12.27853
-8.323845 -0.7916974 -12.98778
-8.204711 -0.7795004 -12.9013
-8.145572 -0.7893072 -12.88293
-8.067286 -0.8915762 -12.79039
-8.32169 -0.7026911 -13.01317
-8.94805 -0.7848665 -12.15076
-7.463987 -0.7441013 -12.49725
-7.463001 -0.7560487 -12.51811
-7.523923 -0.7234962 -12.49456
-8.303438 -0.8150086 -12.59709
-8.518924 -0.7995274 -12.57847
-8.274386 -0.8230004 -12.19145
-8.271792 -0.7713486 -11.51912
-8.309175 -0.7416235 -11.59789
-8.544219 -0.8584306 -12.39357
-8.393064 -0.9133348 -12.38666
-8.63059 -0.8084456 -12.34052
-8.605174 -0.815574 -12.26334
-8.276559 -0.8892674 -12.26229
-8.313066 -0.8184018 -12.05572
-8.406633 -0.7840127 -12.39268
-8.303125 -0.7949638 -12.59294
-8.479241 -0.7777374 -12.60306
-7.664754 -0.8189759 -11.78879
-8.361558 -0.8247813 -12.18606
-8.612834 -0.798977 -12.28368
-8.260727 -0.8076544 -12.24038
-8.05381 -0.8181573 -12.27787
-7.762949 -0.8506116 -11.92988
-7.591062 -0.8458748 -12.39993
-8.473825 -0.8050304 -12.2877
-7.748407 -0.8119763 -12.42528
-8.17267 -0.8070282 -12.21015
-7.407249 -0.8160099 -11.84163
-8.119734 -0.7950995 -12.1631
-8.180993 -0.8056927 -11.98695
-7.853313 -0.7650341 -11.42678
-7.946496 -0.8207477 -12.00442
-8.142426 -0.8078434 -12.01542
-7.746346 -0.801247 -12.07452
-8.056301 -0.783703 -12.03683
-8.311843 -0.7972881 -12.06106
-7.950109 -0.7625134 -12.2298
-7.972189 -0.7043959 -12.03915
-7.902115 -0.5178122 -11.48551
-7.72273 -0.8462846 -12.06678
-7.902988 -0.8242578 -12.17711
-7.626939 -0.8465049 -11.48889
-7.380096 -0.8533147 -11.82553
-8.041719 -0.8741186 -12.13632
-7.885411 -0.8242124 -11.95554
-7.864015 -0.8520054 -12.06824
-7.899907 -0.823482 -12.36934
-7.384387 -0.8394927 -11.8421
-8.155257 -0.7471345 -12.19999
-8.012433 -0.733511 -11.26666
