ply
format ascii 1.0
element vertex 1598
property float x
property float y
property float z
end_header
-0.4628366 -1.239552 2.540039
-0.1490015 -1.307801 2.621415
-0.2437489 -1.272903 3.328103
-0.1969586 -1.365683 3.173416
-0.280485 -0.6021447 3.50329
-0.07882695 -1.310182 2.614451
-0.4457878 -0.9315699 3.589632
-0.7893692 -1.187325 3.564495
-0.6829193 -1.318453 3.185317
-0.700326 -1.348215 3.037611
-0.8608611 -1.293699 3.33185
-0.6912962 -1.315775 2.93026
-0.7691474 -0.8180207 3.457715
0.2291477 -1.201536 2.700536
-0.01380146 -1.272649 3.073586
-0.2249581 -1.262864 3.125257
-0.1191008 -1.290532 2.891114
-0.4655282 -1.003951 3.618354
-0.6237345 -1.296735 3.471956
-0.5382677 -0.6704486 3.524422
-0.5730955 -1.278719 3.320537
-0.7625053 -1.316884 3.566509
-0.2576483 -1.267828 2.596936
-0.5584655 -1.327557 3.01007
-0.5263839 -1.317531 2.939106
-0.8225883 -0.93388 3.62613
-0.2181738 -1.266611 2.409833
-0.7415445 -0.7404159 3.548523
-0.7545002 -0.6943492 3.566717
-0.7465547 -0.7116119 3.547545
-0.7614194 -0.8241112 3.451877
-0.3465098 -1.270608 2.502342
-0.7439478 -0.656726 3.468071
-0.764183 -0.7816091 3.41423
-0.7580233 -0.723255 3.346991
-0.9953619 -1.082318 3.41535
-0.8462102 -0.8232164 3.379876
-1.111785 -1.33738 3.362254
-0.7265725 -0.5880354 3.340752
-0.7299036 -0.6082724 3.333118
-0.7307896 -1.265462 2.867413
-1.056 -1.36937 3.177795
-1.125423 -1.151519 3.375239
-0.2161258 -1.2983 3.008799
-0.1582702 -1.289435 2.764527
-0.7853802 -1.340603 3.042165
-0.8609254 -1.368262 2.941519
-0.4382871 -0.9740939 3.682723
-0.07315859 -1.205696 3.956846
-0.07433675 -1.235046 3.613835
-0.5835132 -1.231939 3.570275
-0.1884101 -1.31158 2.710008
-0.7753411 -0.9007926 3.531118
-0.7513267 -0.661135 3.511927
-0.7438447 -0.620998 3.45043
-0.7659594 -0.7462227 3.394825
-0.7523195 -0.6709191 3.375245
-0.7306099 -0.5778528 3.357691
-0.8457744 -0.6989924 3.390843
-0.0766336 -1.249963 3.382371
-0.08761765 -1.299055 3.082382
-0.4023054 -0.9112003 3.581633
-0.1150711 -1.269958 2.748367
-0.1145087 -1.263927 2.700375
-0.05980942 -1.282364 2.577856
-0.04884402 -1.266713 2.564561
-0.3443118 -1.305781 2.946779
-0.73685 -1.327027 3.422952
-0.7443395 -0.8231645 3.557243
-0.2605014 -1.343371 2.651157
-0.7846301 -0.7609666 3.627111
-0.7561423 -1.052007 3.41571
-0.7717688 -0.7836083 3.482213
-0.7602158 -0.7426096 3.471183
-0.821512 -1.073961 3.366618
-0.7352074 -0.636291 3.416828
-1.030814 -1.205606 3.405376
-0.7157132 -0.5295423 3.316037
-0.9230726 -0.9434726 3.319234
-0.8458677 -0.6506009 3.375433
-0.9119225 -0.8135977 3.314431
-1.114838 -1.18943 3.341408
-1.044297 -0.9932583 3.356723
-0.767731 -1.396975 2.777204
-1.132816 -1.176837 3.325545
-0.402972 -1.251163 2.357831
-0.6183674 -1.362056 2.540511
-1.229967 -1.331942 3.244033
-0.5619048 -1.287979 2.48575
-0.5630385 -1.247853 2.489522
-0.8984392 -1.247101 2.824463
-0.4904747 -1.295008 3.203639
-0.4867972 -1.29444 2.456118
0.1048255 -1.273984 3.496498
-0.462653 -0.8708546 3.571913
-0.4263666 -0.8983708 3.5917
-0.4905615 -0.9146104 3.571105
-0.4117781 -0.8698142 3.576675
-0.4297578 -0.9741651 3.610019
-0.7076927 -1.057653 3.666051
-1.080806 -1.442127 3.405683
-1.164287 -1.362027 3.42699
-0.809126 -0.7022445 3.327821
-0.2027532 -0.6041597 3.656135
0.2844252 -1.209246 2.839204
-0.202848 -0.5805896 3.516315
0.1096069 -1.318846 3.117077
0.143707 -1.337441 2.879421
-0.3694744 -0.6130332 3.544782
-0.3612361 -0.8948872 3.533363
-0.4221596 -0.8524441 3.539807
-0.4678608 -0.9063583 3.594317
-0.03127176 -1.320258 2.609874
-0.1451056 -1.273068 2.727103
-0.7595997 -0.9856834 3.52278
-0.7555738 -0.6530396 3.540579
-0.7628423 -0.7319036 3.444422
-0.7504516 -0.7583199 3.348157
-0.2088971 -1.331218 2.46156
-0.3426145 -1.311159 2.508965
-0.855014 -0.7582846 3.344446
-1.089631 -0.8538754 3.344512
-1.08371 -0.7189582 3.340226
-1.063369 -0.7006566 3.30128
-0.4264387 -0.9047569 3.537918
-0.410945 -0.9633734 3.57274
-0.3978255 -0.9146246 3.565188
-0.4881729 -0.9415659 3.601856
-0.3690933 -0.9273973 3.590992
-1.083934 -0.649676 3.354289
-0.8651393 -0.7593321 3.343393
-1.087561 -0.717252 3.333514
-0.7447812 -0.8471144 3.485736
-0.7657039 -0.4758737 3.35033
-0.8409232 -0.7403501 3.358528
-1.106476 -0.8362923 3.38901
-0.4295757 -0.8511326 3.546314
-0.5667407 -0.4962281 3.662354
-0.8568845 -0.3570362 3.347301
-1.091884 -0.4622843 3.341508
-0.7553846 -0.605653 3.374546
-0.7298968 -0.4540111 4.49422
-0.3785105 -0.9020755 3.537697
-0.8831297 -0.4940307 3.356606
-0.7475346 -0.1464326 3.5731
-0.7532359 -0.5936478 3.724709
-0.7489907 -0.1220408 3.360333
-0.4506864 -0.8456407 3.524831
-0.4672415 -0.8779235 3.537564
-0.8029177 -0.07954879 3.341971
-1.045945 -0.1081848 3.334257
-1.332796 -1.335315 3.179687
-0.7570552 -0.04020864 3.33719
-0.3950001 -0.8862509 3.554062
-0.7521425 -0.07263521 3.380971
-0.7556486 0.02361112 3.342174
-0.9345796 0.005751699 3.353235
-0.8238784 -1.068044 3.361855
-0.9382097 -0.2377244 3.369843
-1.028924 0.002460655 3.359793
-1.259532 -1.308443 3.242522
-1.043719 -0.04494391 3.335099
-0.7544377 0.1083932 3.363832
-0.784144 0.07973354 3.33749
-0.7826545 -1.277237 3.338057
-1.073728 -0.4758316 3.369013
-1.062832 -0.02062053 3.338245
-1.0009 -1.266726 2.959447
-0.4141775 -0.8484186 3.540483
-0.756429 -0.2794513 3.384716
-0.5890979 -0.4798352 3.983879
-0.7323428 -0.06135216 3.753401
-0.7539424 -0.2196883 3.597849
-0.8900972 -0.3258444 3.34639
-1.103715 -0.1113067 3.357119
-0.484493 -0.8866149 3.540985
-0.4056181 -0.8391631 3.544652
-0.4580507 -0.8559007 3.555263
-0.4782127 -0.6812938 3.514548
-0.7580827 -0.02241009 3.517301
-0.7509174 -0.1060864 3.532034
-0.7617539 -0.3138712 3.356865
-1.118665 0.04118415 3.376883
-1.033007 -0.6850348 3.371047
-0.7910498 -0.5549013 3.290171
-0.6064285 -0.51702 3.657531
-0.7511954 -0.5250361 3.744056
-0.7564501 0.09367847 3.341496
-0.7448635 -0.8523125 3.367362
-0.9455178 -0.08911759 3.343228
-0.8618784 -0.4292649 3.355977
-1.073986 -1.029256 3.383207
-0.411385 -0.9082603 3.54582
-0.7192553 -0.5082951 4.482299
-0.7594667 -0.2060905 3.346389
-0.7509832 -1.067811 3.624567
-0.7628428 -0.5141041 3.359938
-1.027959 -0.1205737 3.344302
-0.8576 -0.9226143 3.346309
-1.038632 -0.3079922 3.351114
-1.118704 -0.3933353 3.377728
-1.103263 -0.3068278 3.331606
-0.9844559 -1.012284 3.366845
-1.111559 -0.8730165 3.356966
-1.155488 -0.7735847 3.358585
-1.186445 -0.9909417 3.339588
-0.7546638 -0.2601662 3.671196
-0.5333886 -0.6626787 3.521777
-0.4773404 -0.9140698 3.54078
-0.7501461 -0.2416254 3.531214
-0.760801 -0.1751821 3.349215
-0.499648 -1.214734 3.513498
-0.7563355 -0.5431445 3.409672
-0.9716139 0.05811862 3.354346
-0.9579884 -0.3490486 3.395485
-0.9633096 -0.2337071 3.352337
-1.044619 0.04353685 3.342515
-0.8106456 -1.115108 3.321399
-1.099164 -0.1262394 3.347837
-0.6636397 -1.236305 3.165525
-1.121309 -0.3697986 3.369208
-1.245897 -1.319228 3.267922
-2.107046 -1.252296 3.701362
-0.9965017 -0.1043309 3.378953
-0.5128823 -0.50867 3.641894
-0.6899738 -0.4914567 3.881738
-0.8715502 -0.280308 3.353723
-0.7571234 -0.04057225 3.641199
-0.7531236 0.08432093 3.512851
-0.5003305 -0.6613606 3.486067
-0.4724726 -0.8463477 3.538517
-0.7606301 0.05836904 3.353419
-0.7631702 -0.1098637 3.354342
-0.7426661 -0.1848249 3.351718
-0.8469579 0.06853941 3.333409
-0.8247102 -0.1579316 3.354617
-0.8742452 -0.005294448 3.347989
-0.8808653 -0.1644033 3.359321
-0.8648555 -0.2790177 3.350337
-0.8891231 -0.3389544 3.33867
-1.088395 0.02321088 3.338896
-1.090783 -0.2041154 3.381299
-1.07199 -0.270377 3.368419
-0.9121544 -1.2119 3.295256
-1.041181 -0.8173351 3.345626
-1.326531 -1.327477 3.283742
-0.9402447 0.08426034 3.352712
-0.9375062 -0.5045379 3.347498
-0.8627355 -0.2071719 3.33848
-1.000665 -0.1207606 3.335722
-0.7115093 0.1538179 3.590369
-0.7547485 0.08946188 3.728559
-0.7308744 -0.08931418 3.810962
-0.7464478 0.1157902 3.571626
-0.7441665 -0.4786607 4.04279
-0.7540316 -0.05590965 3.58043
-0.7467921 -0.08230916 3.555276
-0.7479654 -0.08681742 3.458589
-0.7722484 -0.4310403 3.626207
-0.7616129 -0.4065711 3.380968
-0.8503967 -0.1585595 3.340499
-0.9531668 0.08470638 3.332603
-0.7394216 -1.016622 3.392767
-0.8891415 -0.3676805 3.332647
-1.038795 -0.5676408 3.383601
-1.087223 -0.5440239 3.357579
-1.032195 -0.9456937 3.369971
-1.10969 -0.712768 3.365397
-1.499995 -0.5260289 3.663316
-1.066579 -1.053298 3.350045
-1.562294 0.01657896 3.640601
-1.103305 -1.123637 3.356946
-1.778201 -0.01358404 3.733458
-1.215258 -1.320719 3.240059
-0.7610978 -1.234955 3.143862
-1.17566 -0.8324785 3.403424
-0.6659889 -0.5056977 3.984456
-0.7511013 0.01201654 3.616257
-0.3368329 -1.202203 3.501148
-0.5477546 -0.6431106 3.511252
-0.7509639 -0.221271 3.487041
-0.7830449 0.04744393 3.348431
-0.7238863 -0.9780444 3.837945
-0.7667837 -0.5816694 3.364193
-1.007182 0.09079283 3.363677
-0.9917755 0.04622303 3.356969
-0.9519684 -0.1817394 3.353809
-0.9334717 -0.2589801 3.351298
-0.8220888 -0.9429823 3.361713
-1.05537 -0.1429827 3.36403
-1.012044 -0.6211306 3.373565
-1.160731 -0.1487317 3.391079
-1.304655 -0.598761 3.475249
-1.212397 -0.649219 3.385434
-0.7212166 -0.1779684 3.782191
-1.160741 -0.6344346 3.352379
-1.035399 -0.1541238 3.33492
-0.8470218 -1.26605 3.32263
-0.7460662 -0.008220064 3.381842
-0.7586296 -0.05621766 3.722488
-0.7382678 0.04376214 3.432037
-0.7590418 -0.1770808 3.627092
-0.7430464 0.04264035 3.349413
-0.7507794 -0.1223904 3.471864
-0.6562968 -0.6139705 3.556897
-0.7773056 -0.0547644 3.360761
-0.8050606 -0.09854804 3.356993
-0.765339 -0.7039765 3.624582
-0.7677796 -0.2524194 3.369757
-0.758902 -0.6480169 3.469599
-1.026144 -0.02574667 3.381476
-0.9239395 -0.9866042 3.350946
-0.7112942 -1.292224 3.120473
-1.111899 -0.3936871 3.338559
-1.685782 0.03179391 3.651769
-0.4904346 -0.9646376 3.598196
-0.4908433 -0.8877408 3.555891
-0.4080283 -0.9766201 3.583845
-0.4170976 -0.9572221 3.575434
-1.159441 -0.2419708 3.343691
-1.137766 -0.3604731 3.320194
-0.4295026 -0.9165558 3.579527
-0.7556641 -0.2088944 3.535368
-1.050925 -0.07473411 3.383008
-0.755217 -0.200602 4.413646
-0.6249886 -0.5087522 4.307606
-0.4736687 -0.48858 3.638778
-0.3893855 -0.8373696 3.546796
-0.6882443 -0.5125656 3.957805
-0.7592961 -0.3110282 3.729408
-0.7511003 -0.1775347 3.42671
-0.7625421 -0.4826771 3.616455
-0.7606676 -0.407409 3.351002
-0.7518295 -0.4669839 3.364276
-0.7659103 -0.6516949 3.373397
-0.9525174 0.06037289 3.357257
-0.9719573 -0.4050682 3.363654
-1.09359 -0.2443446 3.383792
-1.078149 -0.605871 3.373006
-1.081309 -0.4953943 3.338001
-1.182859 -0.07512408 3.368896
-1.095637 -0.9835309 3.3451
-0.3787754 -0.8860505 3.551933
-0.8545437 -0.7189924 3.376147
-0.9223962 -0.08697852 3.368362
-0.8295717 -0.7045149 3.391766
-0.8780835 -0.5467343 3.361632
-0.6382287 -0.4672148 4.534857
-0.5945572 -0.5079016 4.348496
-0.7521132 -0.2834697 4.607212
-0.7512845 -0.02659737 3.365459
-0.7762951 -0.5101473 3.741214
-0.7597727 -0.2295379 3.379331
-0.847124 -0.2140625 3.361372
-0.8576748 -0.1592634 3.348861
-0.7676412 -0.7649493 3.401608
-0.9472125 -0.2451381 3.358071
-0.9641513 -0.1099306 3.34158
-0.9603339 -0.2105696 3.32632
-1.177779 0.008486547 3.361827
-1.168073 -0.8524517 3.366544
-1.483442 -0.04136744 3.675383
-1.459713 -0.09437323 3.642968
-1.46341 0.007723965 3.610163
-1.524019 -0.2448005 3.625448
-1.705791 -0.1586546 3.641161
-1.071046 -1.349227 2.935323
-0.4276508 -0.862511 3.5581
-0.4274953 -0.9487012 3.584652
-1.155866 -1.150739 3.353998
-0.1808082 -1.261845 3.630638
-0.754971 -0.419825 3.936823
-0.8410338 -0.04462096 3.357149
-1.063932 -0.4117429 3.344321
-0.6233202 -0.2873966 4.63361
-0.7557614 0.07162385 4.759673
-0.7613249 -0.009561682 4.720506
-0.6765003 -0.2744355 4.557544
-0.676179 -0.4032375 4.536582
-0.435987 -0.6311436 3.523958
-0.7528676 -0.3676262 4.660246
-0.6936305 -0.5677308 3.955223
-0.7538194 -0.05800254 3.374708
-0.7598353 -0.2872746 3.39166
-0.6342688 -1.31475 3.370374
-0.8744956 -0.1952021 3.34465
-0.9064433 -0.0811725 3.359834
-0.6412481 -1.31852 3.167793
-0.6478564 -1.333305 3.152732
-0.9213532 -0.3217308 3.33961
-0.9728689 -0.09818814 3.349074
-1.112683 -0.157334 3.357977
-1.221949 -1.277759 3.242306
-1.572015 -0.004178677 3.653591
-1.026027 -1.322865 2.973276
-1.200639 -1.318519 3.156657
-1.589848 -0.07078207 3.642444
-1.686562 -0.3496414 3.647628
-1.666473 -0.4284379 3.625401
-1.502323 -1.339131 3.349128
-1.760284 -0.8185505 3.638387
-1.325926 -1.332142 3.041435
-0.5021874 -0.9134213 3.564481
-0.9677415 -0.04912593 3.344489
-0.3621073 -0.8934515 3.557061
-0.5910496 -0.5043764 4.004103
-1.16909 -0.04751199 3.352168
-0.5399798 -0.4928973 4.327187
-0.7248245 0.01313679 4.498569
-0.8032914 0.01211352 3.942541
-0.7282571 -0.5755336 3.844413
-0.8847443 -0.69126 3.378888
-1.129616 -1.325543 3.349542
-0.5253292 -0.464397 4.525901
-0.4886341 -0.4964959 4.326933
-0.6400476 -0.1584561 4.564378
-0.3797054 -0.9285603 3.566531
-0.2805694 -1.294114 3.57754
-0.7427536 -0.4055251 4.538116
-0.4361808 -0.8506802 3.564882
-0.7712916 0.1083197 3.76099
-0.3851861 -1.283556 3.31776
-0.7462094 0.08650771 3.479983
-0.7492175 0.08207689 3.373489
-0.7526426 -0.1073929 3.416163
-0.7697133 0.01041282 3.317651
-0.7649411 -0.17816 3.361009
-0.8196301 -0.5595378 3.357502
-0.8219628 -0.7922635 3.353457
-0.9431137 -0.101737 3.366255
-0.8878922 -0.7735278 3.338524
-0.9636574 0.06060612 3.338275
-0.9656466 -0.8638325 3.350601
-1.001994 -0.2788499 3.339999
-1.015089 -0.2942673 3.345201
-1.014292 -0.3304736 3.333223
-1.052192 -1.134514 3.409729
-1.050978 -0.2228473 3.355376
-1.060461 -1.006362 3.36394
-1.082666 -1.261421 3.353949
-1.102213 -0.09251732 3.34006
-1.183944 -0.3251377 3.376426
-1.143452 -0.02306113 3.327809
-1.142465 -0.2773021 3.300746
-1.395821 -0.08106695 3.595411
-1.392336 0.05917509 3.570563
-1.444624 -0.173124 3.559779
-1.514269 -0.4692298 3.599601
-1.682221 -0.04140959 3.6143
-1.621461 0.05293955 3.542507
-0.3747407 -0.8918626 3.573653
-0.4931834 -0.4903252 4.287179
-0.7452056 -0.09979561 3.897374
-1.14988 -0.368503 3.333703
-0.959656 -0.6815413 3.365487
-1.132437 -0.5531614 3.369634
-0.5456249 -0.2354764 4.606541
-0.1745843 -1.349271 3.644877
-0.7340816 -0.0660383 4.589611
-0.5421765 -0.5836241 3.756768
-0.7608873 -0.1009619 4.047237
-0.7634951 0.1128564 3.516732
-0.7581251 -0.04070323 3.524821
-0.7489532 0.1091645 3.343
-0.7616343 -0.3912173 3.70293
-0.5819733 -1.297576 3.577027
-0.7533938 -0.2141155 3.384001
-0.8585506 0.04142891 3.362391
-0.82314 -0.2987091 3.354362
-0.7944658 -0.6052216 3.357023
-0.8515703 -0.186763 3.34522
-0.8233622 -0.6216223 3.35468
-0.9699687 -0.03710619 3.336732
-0.959141 -0.1899254 3.341025
-1.013102 0.09323145 3.312858
-1.076512 0.05159054 3.3431
-1.099716 -0.05808046 3.340183
-1.088537 0.07644886 3.322426
-1.108194 -0.3086891 3.339463
-1.115374 -0.272326 3.340106
-1.114171 -0.1343399 3.332773
-1.13104 -0.1679591 3.349248
-1.16777 -0.7670699 3.323524
-1.169474 -0.1116903 3.358407
-1.435707 0.08257461 3.61838
-1.425066 0.06486899 3.563918
-1.550667 -0.5163643 3.62785
-1.527477 -0.2764727 3.614713
-1.480678 -0.1046729 3.577433
-1.504773 0.07169227 3.5979
-1.490242 -1.322431 3.379847
-1.632354 -0.7769257 3.605949
-1.582178 0.07767557 3.608007
-1.682936 -0.123743 3.629742
-1.641269 0.06502359 3.601219
-1.893872 -0.9380962 3.651456
-0.3798852 -0.9158597 3.583937
-0.999653 -0.3315254 3.476026
-1.118096 -0.08139841 3.335759
-1.156463 0.06644592 3.296819
-1.927952 -1.074577 3.706901
-0.6189638 -1.370469 3.469477
-0.6645358 -0.5108483 4.002373
-0.720435 -0.08897726 3.700183
-0.7500902 -0.09175295 3.361434
-0.7511842 -0.1978053 3.324031
-0.8291718 0.09644353 3.328435
-0.8387417 -0.01400962 3.321738
-0.8419877 -0.3775989 3.319708
-0.671762 -1.26506 3.105611
-0.9267341 0.007162869 3.345452
-0.9434244 0.06228657 3.345269
-0.9602445 0.033121 3.340345
-1.010336 0.0804534 3.335936
-1.007404 0.005422827 3.329969
-1.012798 0.1033131 3.320637
-1.012722 -0.9143919 3.341596
-1.169627 -0.09393397 3.357654
-1.473295 -0.5632913 3.645284
-1.286075 -1.265216 3.249833
-1.570503 0.07639152 3.645319
-1.715238 0.02019139 3.639747
-1.782833 -0.1328809 3.648981
-1.172057 0.09416872 3.344747
-1.037388 0.09645151 3.330368
-1.148108 -0.9260319 3.352957
-0.7457001 -0.05216587 3.353465
-0.777816 -0.1877542 3.33042
-0.7602727 -0.5737205 3.351456
-0.755505 -0.7578218 3.343082
-0.9302605 0.05090568 3.338688
-1.045287 -0.07750111 3.339887
-1.121994 0.03483537 3.314406
-1.230044 -0.07121977 3.430044
-0.9831647 -0.01257289 3.342326
-0.8636304 -0.4187528 3.311213
-0.952698 -0.09873715 3.340228
-0.7284129 0.07609367 3.304904
-0.8285605 -0.03781039 3.322128
-0.8622121 -0.2735948 3.340095
-1.094541 -0.7368514 3.351985
-1.039469 -0.6718096 3.352413
-1.06125 -0.4139941 3.352154
-1.084013 -0.1135533 3.325643
-1.051596 -0.2617477 3.353266
-1.082348 -0.5750582 3.350072
-1.081492 -1.157603 3.331303
-1.456059 -0.6763209 3.619494
-1.293118 -0.312048 3.632813
-0.9284763 -0.975392 3.338979
-0.9444515 -0.3707252 3.365696
-0.962097 -0.8501043 3.340126
-0.9830413 -0.9216859 3.343686
-1.023633 -0.8098894 3.354234
-1.761479 -0.2220219 3.593086
-1.53792 -0.8313193 3.613542
-0.9725491 -0.4155864 3.366053
-1.049827 -0.1697765 3.348282
-0.9363478 -0.8476974 3.32936
-1.112198 -0.07522571 3.341406
-1.082853 -0.4809275 3.350093
-1.096707 -0.4619868 3.350285
-1.560035 -0.09433006 3.594046
-1.026127 -0.02203102 3.371042
-0.9977821 -0.1216125 3.410638
-1.08545 -0.08583514 3.336033
-1.177781 -0.1806531 3.54121
-1.315038 -0.06205866 3.602226
-1.404638 -0.0533351 3.609247
-1.492899 -0.7043006 3.625221
-1.580577 -0.06938469 3.570906
-1.61443 -0.05495372 3.572834
-1.035171 -0.1645568 3.329783
-1.154517 -0.1370468 3.334336
-1.175007 -0.03849792 3.308416
-1.604425 -0.03350735 3.522475
-1.158653 -1.02561 3.351211
-0.9336021 -0.5115074 3.358327
-1.164639 -0.4810319 3.46309
-1.579787 -0.2751123 3.51826
-1.086294 -0.5347375 3.344131
-1.153878 -0.1701926 3.356977
-1.165476 -0.1779981 3.348408
-1.161198 -0.2720892 3.350783
-1.17016 -0.05914174 3.505192
-1.167728 -0.3073765 3.341799
-1.09028 -1.149532 3.373765
-1.417968 -0.2446159 3.558861
-1.665225 -0.3453768 3.635644
-1.632604 -0.02335483 3.545025
-1.764896 -0.3474439 3.586029
-1.059968 -0.3429574 3.351835
-1.008306 -0.0170298 3.383665
-0.9279893 -0.4661555 3.375297
-1.027534 -0.1030579 3.373396
-1.060618 -0.2837974 3.325931
-1.26382 -0.8702604 3.663771
-1.419554 -0.08408344 3.608701
-1.450224 -0.3406388 3.616311
-1.578317 -0.01336315 3.568689
-1.164986 -0.6246055 3.341055
-1.120204 -0.5305567 3.337894
-0.9339182 -0.7086636 3.335163
-1.045055 -0.4789039 3.373201
-1.171882 -0.001543514 3.334775
-1.168349 -0.0391886 3.377121
-1.165009 -0.1069579 3.341943
-1.018811 -1.060557 3.35068
-1.170659 -0.03231029 3.509955
-1.153314 -0.7666088 3.352791
-1.347834 -0.343973 3.585532
-1.414422 -0.176537 3.586147
-1.441981 0.0003036335 3.555532
-1.496024 -0.8763502 3.62912
-1.503963 -0.6417743 3.58682
-1.528958 0.001903575 3.555258
-1.586637 -0.007015819 3.54165
-1.867544 -0.4312809 3.613981
-1.587028 -0.2140422 3.575705
-1.074737 0.03969444 3.32714
-1.088942 -0.1077119 3.348929
-1.09147 -0.3649921 3.330427
-1.141665 -0.7184535 3.334076
-1.301975 0.003045734 3.630444
-1.316842 -0.3248952 3.599494
-1.328091 -0.1324172 3.59404
-1.327207 -0.1851962 3.594803
-1.40312 0.01341001 3.61127
-1.434373 0.0029152 3.591038
-1.462035 0.007214695 3.548275
-1.582136 0.01311628 3.441319
-1.770514 -0.2428086 3.593098
-1.26311 -1.174356 3.616691
-1.519958 -0.333269 3.568307
-1.621815 0.00218837 3.500613
-1.091411 0.05367192 3.25366
-1.088801 0.00567669 3.307943
-1.001749 -0.6437591 3.325569
-1.032407 -0.45511 3.390674
-1.168704 0.02223638 3.351997
-1.107216 -0.5918939 3.327179
-1.077876 -1.008131 3.31621
-1.101718 -0.854012 3.340585
-1.182753 -0.5461255 3.511713
-1.328365 -0.1421008 3.551486
-1.456651 -0.7515548 3.656893
-1.504819 -0.8525274 3.643125
-1.534884 -0.7253656 3.632008
-1.592601 -0.09444474 3.599831
-1.765761 -0.5419016 3.639311
-1.76711 -0.4786241 3.615323
-1.883233 -0.9455702 3.66526
-1.093761 -0.04352667 3.287091
-1.187355 -0.4423933 3.259019
-1.173481 -0.3091405 3.446538
-1.038746 -0.2754592 3.324183
-1.129778 0.05124079 3.257431
-1.183903 0.0335861 3.3255
-1.061543 -0.7474152 3.349908
-1.153605 -0.9492722 3.342367
-1.149144 -1.210294 3.422082
-1.509158 -0.6381963 3.663509
-1.538478 -0.682207 3.652323
-1.968975 -0.8275107 3.678512
-1.882178 -0.4940177 3.625285
-1.924159 -1.197452 3.219845
-1.745778 -0.06992934 3.454214
-1.11825 0.02413793 3.283802
-1.162103 -0.8308916 3.351217
-1.248981 -1.278238 3.585113
-1.09168 -0.2365088 3.361688
-1.051328 -0.7762457 3.182104
-1.038607 -0.828626 3.357573
-1.168138 -0.07111597 3.336786
-1.080528 -0.601463 3.350657
-1.154516 -0.3905302 3.375455
-1.155155 -0.7061716 3.360387
-1.324744 -0.2429634 3.645326
-1.363337 0.04341374 3.609397
-1.349824 -0.3371615 3.663237
-1.4713 0.0360583 3.611519
-1.649505 -0.7039469 3.620256
-1.741852 -0.7149094 3.655491
-1.765199 -0.7084594 3.637214
-1.167983 -0.1957471 3.537048
-1.175205 -0.2912385 3.336621
-1.169426 -0.5646219 3.344051
-1.164762 -0.1763538 3.544737
-1.168266 -0.02271538 3.33252
-1.087919 -0.6294196 3.347983
-1.174413 -0.1622327 3.345633
-1.408287 -0.02765401 3.630489
-1.416174 -0.01511826 3.643472
-1.474488 0.04592263 3.740049
-1.537532 0.04437165 3.607665
-1.556682 -0.101039 3.669729
-1.574391 -0.0493432 3.633045
-1.757332 -0.1046619 3.629212
-1.830706 -0.111106 3.607693
-1.071883 -0.4454838 3.353604
-1.168534 -0.4996945 3.340859
-1.173071 -0.1756771 3.443542
-1.576768 -0.08156225 3.680613
-1.184075 -0.04610637 3.339343
-1.158462 -0.7480431 3.339934
-0.9259784 -0.7297207 3.350835
-1.164736 -0.2470059 3.350966
-1.091015 -1.139938 3.365969
-1.293255 -0.306948 3.613918
-1.155826 -0.167735 3.347383
-1.162602 -0.112051 3.353989
-0.7815492 -1.267874 3.336847
-0.8142409 -0.8857663 3.363795
-1.459455 -0.6811509 3.600872
-1.044625 -0.1116631 3.356143
-0.9513596 -0.1557304 3.361875
-0.9145925 -1.014344 3.365025
-1.075321 -0.1353418 3.345081
-0.8455411 -0.1647249 3.362103
-1.029805 -0.1250257 3.352581
-1.338322 -0.4032394 3.611158
-1.160632 -0.4396401 3.346726
-1.454939 -0.5315281 3.59483
-0.8586524 -1.263909 3.339121
-1.170226 -0.1695942 3.358479
-1.160702 -0.4819945 3.352372
-1.18653 -1.236346 3.510466
-1.060405 -0.6012749 3.362901
-1.06608 -1.044336 3.346337
-1.164829 -0.3725542 3.342519
-1.173228 -1.053936 3.364445
-1.26656 -0.8295285 3.619839
-1.038301 -0.1391117 3.350178
-1.076582 -0.120128 3.346897
-1.171414 -0.1038812 3.357916
-1.267932 -0.7889986 3.605582
-0.8449186 -0.2211079 3.355651
-0.7396806 -0.9947038 3.369361
-0.9233664 -0.2600192 3.355722
-1.165385 -0.175365 3.536086
-1.321884 -0.484105 3.606174
-0.8376655 -0.1921159 3.359491
-0.9228224 -0.2329128 3.357584
-0.9585415 -0.1138161 3.352455
-0.9276192 -0.2466196 3.361562
-0.9705698 -0.6806684 3.353662
-1.098668 -0.611306 3.350295
-1.135064 -0.07755467 3.354109
-1.137363 -1.242402 3.327785
-1.296198 -0.1333544 3.545716
-0.8228815 -0.4499007 3.38268
-0.9317948 -0.109851 3.385552
-1.104272 -0.3220999 3.364837
-1.157495 -0.1315395 3.357195
-1.438453 -0.6236386 3.536824
-1.155172 -0.506369 3.349323
-0.8305486 -0.05777939 3.368817
-0.7365646 -0.3915465 3.375474
-0.8252385 -0.2118918 3.356924
-0.7339532 -0.8342424 3.350702
-0.8528289 -0.5065355 3.370728
-0.992882 -0.600896 3.349528
-0.9474554 -0.8867005 3.36798
-0.9516219 -1.055209 3.349156
-1.05232 -0.4670092 3.353927
-1.120864 -0.3302678 3.351259
-1.164781 -0.07922752 3.352724
-1.170194 -0.04104032 3.362923
-1.168065 -0.03983755 3.428715
-1.258207 -0.4749313 3.59677
-1.116651 -0.1438496 3.352198
-1.343234 -0.3529592 3.60029
-0.7412194 -0.4288753 3.347839
-0.7394849 -0.762928 3.348787
-0.8090816 -0.4557716 3.371837
-0.9538356 -0.1905238 3.352822
-0.9570985 -0.2247425 3.366049
-0.9838178 -0.2353856 3.350007
-0.9458834 -0.9379416 3.357111
-1.044148 -0.3839562 3.356456
-1.083762 -0.5402963 3.3523
-1.116672 -0.02121377 3.352585
-1.13454 -0.0163559 3.350634
-1.141774 -0.1648034 3.34397
-1.340681 -0.791499 3.593516
-1.349708 -0.3147374 3.604592
-1.456282 -0.5730142 3.57327
-1.329171 -0.1389779 3.530484
-0.7442206 -0.4159484 3.359058
-0.8905748 -0.06041582 3.363583
-0.8333889 -0.3067688 3.368482
-0.7411343 -0.6482045 3.363627
-0.8141304 -0.8595031 3.373477
-0.9344155 -0.4829146 3.357383
-0.8388684 -1.012441 3.360252
-0.9823368 -0.3667157 3.354654
-0.920445 -0.8950514 3.332935
-0.9024343 -1.084007 3.367616
-1.041135 -0.1388315 3.366016
-1.045368 -0.2984351 3.334364
-0.9725823 -0.9493632 3.364735
-1.041353 -0.4400364 3.363959
-1.089381 -0.4965097 3.34442
-1.162104 -0.03883378 3.346845
-1.179648 -0.8171195 3.46759
-1.48479 -0.7924306 3.549436
-1.376365 -0.05300334 3.62744
-1.382802 -0.06692092 3.636715
-1.522488 -0.6842249 3.584101
-1.446339 -0.3320878 3.593377
-0.8759828 -0.3993545 3.206418
-1.036819 0.0007029995 3.344524
-1.050192 -0.1793126 3.350495
-1.035137 -0.0253584 3.354122
-0.6526266 -0.6396861 3.407742
-0.9196091 -0.09128705 3.348065
-0.7476552 -0.7449605 3.358946
-0.8225544 -0.5370021 3.33914
-0.727849 -0.90472 3.357637
-0.7053308 -1.281703 3.317079
-0.7828923 -1.02313 3.369253
-0.931719 -0.6474159 3.366189
-0.9646744 -0.7777495 3.333764
-0.9775184 -0.7892783 3.352878
-1.080185 -0.286116 3.3524
-1.033915 -0.6958042 3.351815
-1.108183 -0.2988265 3.352756
-1.080393 -0.5802421 3.356691
-1.146813 -0.1435305 3.355032
-1.09029 -1.012848 3.364867
-1.169634 -0.006797889 3.350832
-1.168146 -0.1374072 3.425667
-1.180856 -1.216993 3.342523
-1.17607 -0.04275761 3.445366
-1.168965 -0.198954 3.526331
-1.338207 -0.7665344 3.657045
-1.340586 -0.4282034 3.556693
-1.351819 -0.2716384 3.613127
-1.365129 -0.2958813 3.597415
-1.440428 -0.7349523 3.610635
-1.571123 -1.341681 3.335648
-1.399127 -0.1022327 3.631133
-1.463446 -0.3651505 3.60463
-1.498416 -0.5516071 3.60676
-1.029387 -0.1156079 3.358814
-1.32432 -1.192963 3.569091
-0.7019837 -0.4430652 3.375662
-0.8607325 -0.01047151 3.374841
-1.161569 -0.07316162 3.348739
-0.9452339 -0.06142655 3.305722
-0.7398257 -0.7201934 3.343798
-0.932981 -0.607226 3.343491
-1.038444 -0.157512 3.351538
-0.9871907 -0.4832975 3.350518
-0.9339439 -0.8522476 3.337801
-1.074151 -0.1046221 3.332236
-1.073971 -0.0678585 3.362854
-1.097521 -0.09424016 3.346212
-1.044488 -0.6295306 3.31125
-1.138784 -0.7289343 3.346406
-1.169939 -0.4116889 3.389961
-1.174896 -0.08008975 3.406306
-1.404655 -0.6642666 3.626209
-1.392404 -0.05128074 3.66142
-1.445246 -0.1428724 3.645752
-1.447281 -0.07742371 3.670449
-1.171765 -0.3127049 3.453077
-0.7705993 -0.6748284 3.33156
-0.9186355 -0.3405362 3.344786
-1.044645 -0.7379334 3.347652
-1.464247 -0.4693456 3.636743
-1.061119 0.00588385 3.338205
-1.074885 0.03226989 3.342717
-1.078852 -0.02498045 3.340736
-1.169549 -0.04494468 3.344904
-1.154237 -0.4466301 3.354552
-1.272784 -0.8229989 3.612558
-1.173209 -0.09979795 3.353381
-1.125079 -0.9412855 3.324119
-1.468762 -0.3730572 3.623805
-1.451156 -0.00985031 3.625646
-1.173102 -0.2319553 3.354853
-1.174667 -0.03609662 3.352873
-1.093985 -0.2338281 3.351996
-1.552283 -0.6873192 3.644378
-1.45838 -0.6807424 3.627442
-1.438385 -0.003677271 3.625069
-1.034593 -0.823694 3.349104
-1.152081 -0.3862964 3.360832
-1.466372 -0.5014462 3.620651
-1.069793 -0.1367538 3.350382
-1.165929 -0.1198015 3.47795
-1.168376 -0.2962188 3.429322
-1.17195 -0.9173708 3.327978
-1.455457 -0.8300352 3.605697
-1.411936 0.02908761 3.610442
-0.9252308 -0.5147463 3.357409
-1.460849 -0.5531022 3.623655
-1.165673 -0.03519746 3.432036
-1.169397 -0.2849046 3.372139
-1.165895 -0.0597335 3.540858
-1.19966 -0.2707312 3.428077
-1.354469 -0.3164809 3.617337
-0.9697567 -0.3442489 3.351185
-1.125065 -0.5591646 3.354796
-1.341009 -0.405909 3.622238
-1.474229 0.03335718 3.621754
-1.169005 -0.3520493 3.369953
-0.9124793 -0.3298067 3.355216
-1.071708 0.05074206 3.348041
-1.172197 -0.2620514 3.356802
-1.149052 -0.7722803 3.354149
-1.174506 -0.1478149 3.497156
-1.27276 -0.795583 3.612716
-1.117894 -0.5372041 3.347785
-0.9201306 -0.09926447 3.351609
-0.998158 0.04241 3.350362
-0.953627 -0.1517587 3.353384
-0.9329035 -0.2403092 3.349284
-1.035933 0.03967974 3.352834
-0.8570604 -0.6757998 3.354197
-1.055306 -0.006432258 3.350309
-1.170827 0.08632307 3.346795
-1.169576 0.08455199 3.465023
-1.179582 -0.5288426 3.353064
-1.1738 0.01891233 3.486477
-1.172298 -0.9255691 3.355277
-1.265595 0.08099891 3.602209
-1.390398 0.003305685 3.557534
-1.467406 -0.5985787 3.587655
-1.449675 -0.08585096 3.589732
-1.501987 -0.5722868 3.635934
-1.429614 0.06219894 3.629378
-1.452152 0.05434338 3.635957
-1.034219 -0.1007298 3.349931
-1.167682 -0.5028303 3.347403
-1.147738 -0.6592102 3.545849
-1.436882 0.07412402 3.622846
-1.172568 -0.05797226 3.353806
-1.163857 -0.311497 3.348945
-1.167074 -0.03227304 3.543791
-1.40423 0.007063888 3.628614
-1.546003 -0.429256 3.602916
-1.480365 -0.01316737 3.594792
-1.477102 -0.005986521 3.626425
-1.147755 -0.5102307 3.389636
-1.402296 -0.06272057 3.638619
-0.833229 -0.1677062 3.365177
-0.9317604 0.05858473 3.36805
-0.9567238 0.09261082 3.373355
-0.9517163 -0.1004614 3.35447
-1.01099 0.1034441 3.356187
-1.00789 -0.028047 3.359136
-1.041551 -0.035343 3.348122
-1.083431 0.08377276 3.351067
-1.101288 -0.1408384 3.3621
-1.114576 -0.3075791 3.343819
-1.179431 0.0956708 3.346815
-1.165236 -0.02624585 3.347934
-1.129233 -0.7104048 3.314873
-1.174802 0.09807958 3.424634
-1.193825 -0.3966251 3.44902
-1.284604 -0.05011319 3.619289
-1.275239 -0.03679768 3.676129
-1.353208 0.03190494 3.618426
-1.357571 0.1098181 3.627466
-1.381683 0.0999883 3.646686
-1.445472 0.0657825 3.638021
-1.473327 -0.03320511 3.586363
-1.447599 0.09258507 3.634624
-1.46748 0.1247497 3.584041
-1.030378 0.09551859 3.360798
-1.073599 -0.05447739 3.346806
-1.197233 -0.7718365 3.342429
-1.340053 0.08831073 3.620729
-1.431868 0.1025676 3.61715
-0.778334 -0.08573519 3.362363
-0.8036105 -0.05960339 3.354275
-1.011836 0.005038518 3.345704
-1.023308 0.09562162 3.371177
-1.064902 0.0930184 3.371058
-1.171992 -0.4264679 3.354891
-1.178183 0.1145613 3.423859
-1.162993 -0.1982053 3.428829
-1.178728 -0.1617151 3.468111
-1.254006 -0.2060854 3.644017
-1.509698 -0.793578 3.587098
-1.451604 -0.132592 3.596917
-1.459459 -0.126979 3.595541
-1.556131 -0.5511245 3.585503
-0.7405649 -0.3149812 3.360131
-1.029661 -0.08732079 3.326347
-1.054267 -0.06479105 3.343664
-0.7883074 -0.1662071 3.336562
-0.8462989 -0.0382353 3.336962
-0.9703805 0.09862968 3.353629
-0.9759809 0.0460449 3.346584
-1.059904 0.03058329 3.329985
-1.02043 -0.1408376 3.328994
-1.15645 0.03107731 3.329407
-1.181396 0.07241386 3.350459
-0.7800838 -0.1031073 3.337532
-1.115801 0.03439131 3.307247
-0.7813902 -0.2550005 3.312031
-1.154656 0.1107036 3.536305
-1.459704 -0.9580086 3.671518
-1.453412 -0.3331353 3.606359
-1.503894 -0.4148785 3.628705
-1.535551 -0.4753644 3.615567
-1.547352 -1.000483 3.649924
-1.506757 -0.184277 3.614823
-1.521804 -0.1112056 3.613891
-1.526126 -0.4025999 3.605134
-1.647162 -0.7928581 3.624333
-1.653081 -0.685057 3.62875
-1.565482 0.002536576 3.629265
-1.586093 -0.117511 3.623952
-1.577225 -0.02784528 3.623791
-1.612668 -0.1213522 3.627195
-1.603691 -0.01906849 3.627268
-1.606593 0.004977051 3.641608
-1.624608 -0.0612703 3.618263
-1.643892 -0.1735223 3.626784
-1.629919 -0.05080917 3.628613
-1.543873 0.05982577 3.640841
-1.663445 -0.4189958 3.617104
-1.660056 -0.324273 3.60271
-1.461226 -0.7028449 3.622511
-1.679373 -0.3873231 3.608319
-1.621133 0.05885961 3.638085
-1.674455 -0.1906936 3.620638
-1.686001 -0.2229505 3.623813
-1.694163 -0.1184009 3.623627
-1.779459 -0.3588898 3.618238
-1.718593 -0.1599759 3.620997
-1.722088 -0.1042413 3.631377
-1.65505 -0.06232876 3.626674
-1.651359 0.04496947 3.630986
-1.685403 0.003910027 3.62538
-1.449557 -0.7560883 3.645152
-1.556012 0.02482254 3.628251
-1.615637 -0.1455047 3.614093
-1.65046 -0.7131124 3.627546
-1.62947 0.04065133 3.631054
-1.778459 -0.2458166 3.613078
-1.774928 -0.1685536 3.621902
-1.739525 0.08186422 3.622152
-1.807902 -0.1955319 3.623065
-1.538601 -0.0117323 3.641225
-1.552583 -0.03533494 3.603486
-1.748965 0.03941515 3.62002
-1.332932 -0.7402378 3.674577
-1.480777 -0.8525008 3.644355
-1.571318 -0.3948266 3.627351
-1.632088 -0.7912779 3.612838
-1.639747 -0.040818 3.632785
-1.655794 -0.6544533 3.634857
-1.800508 -0.03234465 3.629916
-1.858246 -0.2370737 3.618263
-1.837244 0.09060641 3.642652
-1.857218 -0.003244299 3.613799
-1.854567 0.04786915 3.621936
-1.865818 -0.01364592 3.610041
-1.896301 -0.08905445 3.617614
-1.664343 -0.1705246 3.640625
-1.789865 0.05119197 3.628986
-1.790888 0.07913171 3.616491
-1.857467 -0.02139922 3.613858
-1.426798 -0.606968 3.626428
-1.48687 -0.4703757 3.599236
-1.551325 -0.09240186 3.629055
-1.579072 0.04230275 3.638041
-1.57832 0.008295983 3.628777
-1.58239 -0.1378822 3.626103
-1.598774 -0.005958911 3.625427
-1.537059 -0.6305979 3.627628
-1.63975 0.02407515 3.628774
-1.684399 0.02267787 3.617296
-1.660584 -0.3792655 3.622237
-1.697444 -0.07352632 3.623373
-1.701163 0.03507276 3.609185
-1.705236 0.001899686 3.626268
-1.72553 -0.001794502 3.620478
-1.744782 -0.2048597 3.622325
-1.789077 -0.1195492 3.616908
-1.807332 0.001848053 3.607824
-1.839489 -0.361073 3.609836
-1.85451 0.09901056 3.627801
-1.85824 -0.03628245 3.608517
-2.057275 -1.212156 3.547574
-1.898904 0.09081839 3.623745
-1.915065 -0.01922911 3.626743
-1.919101 -0.001719221 3.622501
-2.122911 -1.013531 3.490795
-2.176799 -0.9097276 3.562856
-2.131623 -0.9027418 3.496238
-1.469232 -0.4307707 3.590394
-1.572061 -0.9760862 3.603336
-1.671286 -0.03044089 3.631657
-1.667601 -0.117017 3.60176
-1.658317 -0.4453458 3.592327
-1.742446 -0.05860051 3.620924
-1.784829 -0.01021668 3.624101
-1.843792 0.08510162 3.591708
-1.970585 0.06214565 3.639412
-1.443062 -0.832503 3.671659
-1.435353 -0.9466242 3.712223
-1.499905 -0.677746 3.633907
-1.597641 -0.1216746 3.621843
-1.502964 -0.8460898 3.628917
-1.495973 -0.8859173 3.633191
-1.532542 -0.8541446 3.655342
-1.639106 -0.07045421 3.621325
-1.587326 -1.136446 3.66659
-1.665819 -0.5116224 3.62273
-1.776191 -0.2020375 3.619164
-1.766288 -0.5390394 3.587367
-1.805517 -0.04729553 3.629673
-1.810066 -0.06398564 3.629
-1.803853 -0.1340817 3.596568
-1.806396 -0.07057802 3.58207
-1.820774 -0.06281403 3.612621
-1.833853 0.02335403 3.628587
-1.831537 -0.04054991 3.623733
-1.835491 -0.08866827 3.617917
-1.835349 -0.141554 3.608654
-1.837005 -0.1677781 3.614334
-1.847675 -0.2855626 3.608929
-1.844777 0.01772491 3.617408
-1.867839 -0.1953811 3.584252
-1.901585 0.07234982 3.62526
-1.912262 0.08746015 3.623007
-1.92442 -0.02036912 3.583126
-1.975401 0.08737071 3.607925
-1.993053 -0.09068581 3.589986
-2.008827 -0.06531393 3.569616
-2.134947 -1.095775 3.495509
-2.126624 -1.015407 3.454697
-2.048947 0.03412849 3.602056
-2.126844 -0.8896664 3.445878
-2.133283 -0.6739483 3.478132
-2.194558 -0.5687717 3.588659
-2.130917 -0.4645629 3.520148
-2.13249 -0.8640576 3.384496
-2.133455 -0.5509942 3.472944
-2.14548 -0.3843058 3.534897
-2.129338 -0.8300173 3.359352
-1.619159 0.0966647 3.727235
-1.509238 -0.6606107 3.618065
-1.687657 -0.1694267 3.646319
-1.747465 -0.1312647 3.604983
-1.778049 0.03180664 3.592097
-1.870036 -0.4682185 3.605687
-1.854054 0.03277952 3.609469
-1.881747 -0.1110982 3.606371
-2.138159 -0.4603945 3.517601
-1.575088 -0.2349755 3.624287
-1.615165 -0.04622997 3.624126
-1.476937 -0.8738103 3.679893
-1.668999 0.1050351 3.625062
-1.621772 -0.4070122 3.642854
-1.708055 -0.009163126 3.618187
-1.764484 0.02054853 3.614065
-1.755588 -0.227493 3.615288
-1.762446 -0.1785742 3.618782
-1.782921 -0.06383285 3.626889
-1.766013 -0.4205662 3.62855
-1.760795 -0.7004177 3.624109
-1.815413 0.05443848 3.599152
-1.837883 -0.1091564 3.629695
-1.859765 -0.712808 3.622289
-1.867494 -0.1367752 3.611441
-1.863776 -0.4159034 3.604898
-1.902731 -0.3067301 3.558529
-1.936255 -0.1884178 3.616427
-1.941964 0.0473222 3.608451
-2.036594 -1.169925 3.603066
-2.000117 -0.07880777 3.624039
-1.982869 -0.05052847 3.567708
-2.136289 -0.6487682 3.523894
-2.131332 -0.8358843 3.483905
-2.132799 -0.8049003 3.480472
-2.060572 -1.079141 3.315811
-2.135029 -0.6185053 3.512635
-2.090561 -1.016391 3.366799
-2.123835 -0.7330624 3.460511
-2.128575 -0.8345425 3.443099
-2.135063 -0.6227646 3.477559
-2.125253 -0.9567195 3.35549
-2.123652 -0.2776474 3.509685
-2.131315 -0.3994002 3.479295
-2.116657 -0.4915159 3.436362
-2.114374 -0.2592302 3.486112
-2.12962 -0.6422539 3.41353
-2.131457 -0.7386855 3.389948
-2.125415 -0.411187 3.453893
-2.100806 -0.1439555 3.485646
-2.122441 -0.3679507 3.448951
-2.127002 -0.2452947 3.47783
-2.153165 -0.2103253 3.510046
-2.091998 -0.3381527 3.401767
-2.117087 -0.8138003 3.299677
-2.138226 -0.5794215 3.359677
-2.057092 -0.7725769 3.204353
-2.140054 -0.4419524 3.393017
-2.131331 -0.6941196 3.304328
-2.045058 -1.176269 3.542223
-1.564134 -0.3066053 3.626603
-1.646827 0.01958591 3.619654
-1.780744 -0.04538888 3.618128
-1.804141 -0.09793909 3.6078
-1.796735 -0.7048728 3.578911
-1.82753 -0.1082103 3.60077
-2.034848 -1.011338 3.294087
-2.123034 -0.318693 3.499581
-1.531886 -0.4297756 3.619721
-1.533206 -0.779179 3.675468
-1.6514 -0.03751442 3.622971
-1.640837 -0.2322533 3.625739
-1.710986 0.1382807 3.622087
-1.647184 -0.7857912 3.620753
-1.799355 0.09423511 3.626528
-1.797913 0.03824403 3.628532
-1.730429 -0.7649768 3.61275
-1.805428 0.1343279 3.613376
-1.774675 -0.4034798 3.615886
-1.773348 -0.7716082 3.618739
-1.84029 0.03255958 3.624271
-1.874683 0.1338316 3.613006
-1.887981 0.1220784 3.614542
-1.889587 0.1086188 3.611952
-1.874219 -0.147994 3.546136
-1.91161 -0.3376231 3.577129
-1.958721 0.09269144 3.619058
-2.037318 -1.00842 3.595211
-1.998073 -0.2796256 3.58533
-2.135676 -0.7070369 3.48791
-2.119424 -0.5751851 3.385302
-2.119003 -0.6154473 3.372051
-2.129548 -0.553248 3.366524
-2.109512 -0.9387543 3.254302
-2.145716 -0.1250354 3.450128
-2.1576 -0.3238469 3.402493
-2.123744 -0.3467022 3.366718
-2.10524 -0.204024 3.371845
-2.13635 -0.1879639 3.399021
-2.144656 -0.3485638 3.362874
-2.134984 -0.6282331 3.276687
-2.136371 -0.5402421 3.290406
-2.158529 -0.1959043 3.377362
-2.12926 -0.5467879 3.251214
-2.133159 -0.5314369 3.253266
-2.153914 -0.4237382 3.30081
-2.128921 -0.4992662 3.249747
-2.119073 -0.5374205 3.219593
-1.6522 -0.01349031 3.624
-1.731606 0.1237191 3.629017
-2.136158 -0.3936689 3.509577
-2.072055 -0.007212322 3.442867
-2.161901 -0.2128122 3.477729
-2.125852 -0.5131822 3.345704
-1.622074 -0.00223108 3.620727
-1.478255 -0.8225073 3.599194
-1.542535 -0.7465661 3.609583
-1.536734 -0.7555959 3.600305
-1.67024 -0.375405 3.613753
-1.855317 0.1390562 3.614962
-1.956613 -0.06730539 3.617797
-2.170197 -0.6286904 3.55903
-2.104792 -1.123441 3.273022
-2.102285 -1.140681 3.253755
-2.131318 -0.2025561 3.423863
-2.123977 -0.7614065 3.273335
-2.110907 -0.914853 3.160349
-2.132007 -0.5227507 3.268912
-2.122063 -0.632678 3.214384
-2.114855 -0.05926337 3.343931
-2.110123 -0.7078682 3.170706
-2.135856 -0.4016746 3.253847
-2.128211 -0.274644 3.277836
-2.111882 -0.6765307 3.153081
-2.13327 -0.2456728 3.277855
-2.104961 -0.5703066 3.171506
-2.089871 -0.1135699 3.274513
-2.101301 -0.8027948 3.089549
-2.091287 -0.6751158 3.116156
-2.135715 -0.5866925 3.170122
-2.082623 -0.6800743 3.104312
-2.149065 -0.285722 3.257972
-2.101288 -0.3954041 3.196692
-2.093442 -0.6196144 3.118701
-2.147178 -0.3777102 3.217719
-1.792166 0.1179292 3.623321
-1.887668 -0.1564128 3.612844
-2.014122 -1.12549 3.59592
-2.103163 -0.005006474 3.405794
-2.139999 -0.2666858 3.365931
-2.133135 -0.5876824 3.241929
-2.139938 -0.327218 3.27774
-1.529181 -0.6650977 3.597361
-1.64594 -0.06294854 3.59861
-1.728041 0.1624311 3.608894
-1.733342 0.02418157 3.596704
-1.613379 -0.992453 3.598959
-1.848395 0.1677298 3.599471
-1.863115 -0.04110264 3.620174
-1.883186 0.07591347 3.637937
-1.872715 -0.2052633 3.594835
-1.947417 -0.6757168 3.597075
-1.990065 -0.01054908 3.620985
-2.005509 0.1369932 3.618363
-2.02235 -0.03234321 3.622054
-2.094731 0.1156232 3.655898
-2.134931 -0.2213636 3.51859
-2.139508 -0.03191566 3.520912
-2.125559 -0.5982361 3.373733
-2.115383 -0.8416245 3.173242
-2.157759 0.1756637 3.391461
-2.132827 0.1661621 3.357509
-2.122528 -0.2539796 3.237361
-2.136737 -0.4574315 3.179065
-2.148222 0.004803021 3.291398
-2.146707 -0.4366303 3.179617
-2.115366 -0.01183889 3.255411
-2.160117 -0.06608911 3.257402
-2.04222 -1.177858 3.556017
-1.642284 0.07465811 3.605543
-1.504099 -0.6184728 3.575863
-1.59545 -0.3049893 3.606563
-1.583889 -0.545443 3.626863
-1.667838 -0.1171263 3.613852
-1.813116 -0.0335055 3.589687
-1.874454 -0.4750382 3.614298
-2.130656 -0.5807145 3.469454
-2.135612 -0.2727919 3.505231
-2.127433 -0.579522 3.401489
-2.166679 -0.08156782 3.366083
-2.112507 -0.6877705 3.106525
-2.132724 -0.3240319 3.199627
-2.108011 -0.8304949 3.317898
-1.598104 -0.01409279 3.604712
-1.518124 -0.689576 3.57545
-1.500615 -0.7734976 3.54298
-1.727573 0.1313709 3.603755
-1.773635 -0.2671145 3.600834
-1.869493 0.1139109 3.622756
-1.872947 -0.1060899 3.594993
-1.951473 0.07939984 3.609853
-2.021027 -0.4850621 3.640399
-2.115393 -1.072384 3.392557
-2.110987 -1.089817 3.369158
-2.148809 -0.1612743 3.496899
-2.122586 -0.6718951 3.366695
-2.125861 -0.6872566 3.300135
-2.126985 -0.7953938 3.271122
-2.133289 -0.9034688 3.258451
-2.136093 -0.4945837 3.270479
-2.177762 -0.03334601 3.311902
-2.11012 0.1437251 3.257908
-2.175739 0.02058998 3.389889
-2.053602 -1.229994 3.600787
-2.118013 -0.780885 3.095839
-1.710089 -0.301344 3.588946
-1.781397 0.053201 3.606629
-1.867012 -0.02501024 3.630893
-2.119195 -0.072401 3.494008
-2.147552 -0.1470976 3.515166
-2.130166 -0.7080562 3.320756
-2.122891 -0.8248229 3.237537
-2.120596 -0.8916597 3.166719
-2.12418 -0.9643255 3.103963
-1.557602 0.008082591 3.600246
-1.578106 0.1611846 3.546983
-1.569306 0.0487403 3.594059
-1.567727 0.01296408 3.587623
-1.569514 -0.0235477 3.60336
-1.434999 -0.626165 3.549694
-1.428807 -0.6642625 3.546262
-1.424978 -0.6758099 3.537377
-1.578463 0.006922714 3.588621
-1.581996 -0.01537016 3.598177
-1.453045 -0.630601 3.554188
-1.445807 -0.6513551 3.533716
-1.441693 -0.7075411 3.564112
-1.437106 -0.7287902 3.540218
-1.430101 -0.7365252 3.523232
-1.615258 0.1041588 3.582299
-1.548826 -0.776488 3.677803
-1.662411 0.05287782 3.594428
-1.526327 -0.7702077 3.563821
-1.66081 -0.1276156 3.601609
-1.624136 -0.7649114 3.591705
-1.738535 0.04174365 3.599805
-1.771989 -0.04158011 3.603873
-1.819623 0.05370191 3.611707
-1.822356 -0.1009021 3.600086
-1.838812 0.03582825 3.588519
-1.872635 0.2187818 3.610138
-1.894997 0.02501658 3.622852
-1.901906 0.03885359 3.613436
-2.034589 -1.16384 3.59701
-2.11216 -1.002331 3.492409
-2.128516 -0.70439 3.517367
-2.142996 -0.3815152 3.489274
-2.140379 0.2313872 3.51888
-2.095307 -1.224192 3.316787
-2.084094 -1.034813 3.169878
-2.124659 -0.7088842 3.194684
-2.133922 -0.2900005 3.262626
-2.065369 -0.8859375 3.072468
-2.11821 -0.4484226 3.186486
-1.5862 0.06136236 3.623093
-1.665202 0.2089537 3.579627
-1.752489 -0.1014256 3.616049
-1.78236 -0.009675039 3.615207
-1.788466 -0.2594652 3.629998
-1.858696 0.2062413 3.611741
-2.153462 0.1127186 3.519369
-1.443485 -0.318433 3.580312
-1.433688 -0.3547972 3.586057
-1.526173 0.0484498 3.584132
-1.44777 -0.3506129 3.599386
-1.460307 -0.3503007 3.591784
-1.556731 0.0629628 3.592357
-1.547526 -0.03763803 3.608359
-1.59172 0.1334932 3.594182
-1.442528 -0.6661822 3.563577
-1.508259 -0.4834833 3.59006
-1.520625 -0.7455063 3.60755
-1.664782 -0.0167798 3.605686
-1.686206 0.06611454 3.616281
-1.683514 0.04958966 3.603788
-1.669362 -0.3808208 3.594581
-1.703306 -0.1760756 3.599502
-1.73344 -0.05613724 3.606759
-1.711881 -0.235635 3.599728
-1.74686 -0.09631114 3.60843
-1.739845 -0.1314726 3.598602
-1.688417 0.05646591 3.451204
-1.755689 -0.404994 3.60586
-1.727764 -0.4743883 3.554771
-1.798234 -0.0587327 3.606282
-1.817187 -0.03577473 3.603961
-1.892793 0.07207714 3.614184
-1.853476 -0.7013368 3.613225
-1.900746 -0.1710215 3.598738
-1.948819 0.06100464 3.610015
-2.04203 -1.020404 3.602145
-2.190457 0.228682 3.489202
-2.113936 0.210482 3.340914
-2.139098 -0.8563869 3.106868
-1.646054 0.2184955 3.574559
-1.64211 0.1963573 3.558716
-2.091362 -0.6524943 3.14647
-1.64015 0.2078643 3.561265
-1.530321 0.1111425 3.55236
-1.500206 -0.1818678 3.603624
-1.456465 -0.414649 3.564053
-1.457573 -0.4632637 3.571301
-1.844952 0.08099096 3.606146
-1.596916 -0.2254436 3.628473
-2.123839 -0.9076282 3.449904
-2.109981 -0.9613392 3.350534
-2.136063 -0.8544288 3.321191
-2.134484 -0.9897935 3.211141
-2.156775 -0.6556511 3.290002
-2.121054 -0.7359849 3.185145
-2.119246 -1.03486 3.51281
-2.144541 -0.7313509 3.530129
-2.148695 -0.871655 3.130449
-2.118732 -1.124068 3.192139
-2.123395 -1.282738 3.536583
-2.123456 -1.109901 3.124061
-2.126857 -1.047693 3.12438
-2.253756 -0.08777007 3.251864
-2.158995 -0.5490907 3.137974
-2.129169 -0.9151649 3.124193
-2.167665 -0.08194592 3.191453
-2.193719 -0.4129695 3.139812
-2.106233 -1.22356 3.175615
-2.095849 -0.8147903 3.498187
-2.119631 -1.17257 3.122736
-2.126363 -0.9098723 3.254858
-2.278609 -0.01874559 3.164244
-2.107058 -0.1490956 3.046892
-2.17195 -0.7116015 3.131326
-2.154595 -0.4727929 3.139496
-2.178034 -0.08865778 3.145725
-2.07322 -0.9175465 3.480207
-2.131701 -1.179097 3.211267
-2.104283 -1.248398 3.121407
-2.193389 -0.7176413 3.140989
-2.217514 -0.2833402 3.147683
-2.194267 -0.182522 3.134646
-2.097055 -1.199265 3.074239
-1.963844 -1.313342 3.282702
-2.151702 -0.7981322 3.267432
-2.049521 -0.07041562 3.126851
-2.156068 -0.6781354 3.286395
-2.196768 -0.1588019 3.148263
-2.148326 -1.377899 3.640109
-2.15441 -0.6583026 3.396471
-2.126332 -0.2279574 3.179549
-2.126661 -1.049031 3.194544
-2.162506 -0.3564454 3.129847
-2.122585 -0.9745079 3.12251
-2.072816 -0.9881443 3.042453
-2.053495 0.1614137 2.833918
-1.996575 -0.7296877 2.627381
-2.151905 -0.7197651 3.174947
-2.083458 -1.230445 3.019934
-2.166674 -0.1128816 3.403757
-2.15002 -0.3278292 3.361677
-2.120461 -0.8645864 3.383497
-2.089184 -0.9361489 3.046427
-2.026141 0.1124742 2.94268
-2.192593 0.09992865 2.822341
-2.157543 0.03383558 2.731909
-2.251274 -0.05712162 3.152287
-2.21503 -0.6737736 3.144471
-2.135269 -1.283347 3.126889
-2.141182 0.2459067 2.897106
-1.927476 -1.260189 3.347073
-2.075839 -0.3788907 3.222214
-2.130447 -0.464142 3.177593
-2.12642 -0.8728167 3.185949
-2.112813 -0.2078639 3.109529
-2.124351 -0.8450035 3.154351
-2.087098 0.03136458 2.879399
-2.13638 0.01346829 2.75725
-2.112093 0.2595699 2.762519
-1.819528 -1.015699 2.622561
-2.07097 0.10137 2.636832
-2.18421 -0.05631199 2.556181
-2.135934 0.006057352 2.547723
-2.182385 -0.2618654 3.129328
-2.167034 -1.242349 3.133328
-2.160188 -1.003857 3.147387
-2.193008 -0.07688072 3.392671
-2.148491 -0.6033111 3.413404
-2.19959 -0.1336521 3.298702
-2.19102 -0.4235077 3.21589
-2.117971 -0.7140639 3.154845
-2.161536 -0.6288339 3.129697
-1.92257 -1.245673 3.108282
-2.122808 -0.7164994 3.118097
-2.117702 -0.1997183 2.916889
-1.971736 -1.322616 2.823985
-2.11916 -0.09182326 2.668992
-2.150094 -0.03845596 2.52543
-2.117938 -0.176467 2.467643
-2.169981 -0.2751103 2.426781
-2.094545 -0.5612258 2.343328
-2.211993 -0.34497 2.332886
-2.153868 -0.7233282 3.121982
-1.977108 -0.4871951 3.257041
-2.189128 -0.1135508 2.494064
-2.170701 -0.2437906 3.402171
-2.132447 -1.107662 3.503924
-2.149608 -0.4309529 3.281099
-2.203876 -0.2098133 3.229616
-2.11548 -0.4763152 3.181774
-2.128752 -0.1874634 2.985862
-2.137298 -1.289523 3.045153
-2.06537 -0.1820057 2.557259
-2.025834 -1.018995 2.298492
-2.01529 -1.15934 2.230724
-2.060056 -0.2259122 2.364264
-2.124858 -0.3468165 3.107316
-1.939066 -1.071454 2.212308
-2.119153 -0.2172941 3.190544
-2.148922 -0.7354891 3.139544
-2.205712 -1.38454 3.17486
-2.095777 -1.197831 2.388041
-2.164592 -0.2006136 3.382336
-1.830258 -1.114925 3.211428
-2.09852 -1.220222 3.303098
-2.109531 -0.329506 3.18746
-2.171673 -0.3678868 3.193892
-1.906568 -1.151664 2.768914
-2.186012 -0.3288016 3.128368
-2.140815 -0.2268654 3.400937
-2.117086 -0.6462485 3.51507
-2.062528 -0.550829 3.442572
-2.04955 -0.968165 3.467422
-2.133352 -0.370018 3.2734
-2.085013 -1.059856 3.347046
-2.077202 -0.9979687 3.287117
-2.105869 -0.9841034 3.181634
-2.076512 -1.219018 3.183311
-2.097425 -1.147816 3.112561
-2.015929 -1.092673 2.903333
-1.835642 -1.053137 2.609795
-1.7684 -1.032849 2.444627
-1.638273 -0.8445165 2.454376
-2.090243 -1.224514 3.105136
-1.979081 -1.087305 2.209156
-1.847192 -1.139512 2.601688
